ply
format ascii 1.0
element vertex 711
property float x
property float y
property float z
property uchar red
property uchar green
property uchar blue
end_header
8.103509902954102 7.9082136154174805 11.180168151855469 26 27 41
6.769290924072266 8.180407524108887 11.439615249633789 237 241 246
8.129597663879395 7.957709312438965 11.25667953491211 245 250 255
6.7723212242126465 8.104249000549316 11.473509788513184 33 44 52
6.557367324829102 8.1893310546875 11.524306297302246 34 41 50
8.066483497619629 7.826559543609619 11.362645149230957 51 50 59
8.066483497619629 7.826559543609619 11.362645149230957 51 50 59
7.780526638031006 7.9025492668151855 11.42137336730957 22 38 45
7.77723503112793 7.903370380401611 11.422798156738281 22 38 45
7.77723503112793 7.903370380401611 11.422798156738281 22 38 45
6.602826118469238 8.098909378051758 11.631736755371094 236 248 252
7.4978766441345215 7.9373087882995605 11.531639099121094 0 0 6
7.718795299530029 7.87797737121582 11.542096138000488 245 252 255
7.523193836212158 7.9666829109191895 11.628495216369629 243 252 255
7.724894046783447 7.872602939605713 11.593168258666992 0 3 13
7.646023273468018 7.81782865524292 11.61043930053711 68 73 82
8.5469388961792 7.679337978363037 11.4932861328125 250 254 255
8.104479789733887 7.763031005859375 11.5944242477417 54 60 65
8.580349922180176 7.682816028594971 11.512526512145996 19 21 32
7.01802921295166 7.8408894538879395 11.8759183883667 62 73 81
7.196789741516113 7.854764461517334 11.864587783813477 248 252 255
6.409454345703125 8.068116188049316 12.042439460754395 53 51 57
6.959374904632568 7.906428813934326 11.951452255249023 233 241 248
7.074082851409912 7.889685153961182 11.940953254699707 241 249 255
7.208012104034424 7.8379926681518555 11.918810844421387 24 26 36
6.991718769073486 7.912160873413086 11.983139038085938 44 55 59
8.12133502960205 7.661777496337891 11.763049125671387 56 57 67
8.12133502960205 7.661777496337891 11.763049125671387 56 57 67
7.012889862060547 7.8566789627075195 11.992592811584473 49 51 61
7.157865047454834 7.83064603805542 11.970084190368652 243 253 255
7.246552467346191 7.764464855194092 11.9837064743042 40 42 52
8.086518287658691 7.661553859710693 11.829631805419922 30 29 38
8.172781944274902 7.648348331451416 11.813382148742676 250 252 255
8.073232650756836 7.6358323097229 11.871630668640137 243 252 255
8.165057182312012 7.654046058654785 11.873697280883789 120 124 135
8.248343467712402 7.539880275726318 11.919981002807617 10 20 30
5.4733500480651855 8.020977020263672 12.557647705078125 222 231 235
8.453007698059082 7.594132423400879 11.939023971557617 50 54 59
8.978360176086426 7.419875621795654 11.848614692687988 249 251 255
8.134294509887695 7.507818222045898 12.023695945739746 213 224 228
8.86496639251709 7.470582485198975 11.91421127319336 73 71 83
7.785315990447998 7.447988986968994 12.415143966674805 167 178 182
8.246173858642578 7.331871509552002 12.406274795532227 152 162 169
6.4881978034973145 7.5269293785095215 12.821514129638672 246 253 255
8.805630683898926 7.170629501342773 12.346076965332031 168 178 185
8.961718559265137 7.188783645629883 12.358162879943848 173 182 191
8.961718559265137 7.188783645629883 12.358162879943848 173 182 191
9.259720802307129 7.095394611358643 12.325417518615723 215 225 232
9.531983375549316 7.0586323738098145 12.318399429321289 160 170 177
16.177305221557617 -3.3949625492095947 11.00489616394043 26 109 177
16.133495330810547 -1.985723614692688 11.39094066619873 211 216 207
16.17693519592285 -2.30692195892334 11.291495323181152 226 247 244
16.15464973449707 -2.0023536682128906 11.383822441101074 255 255 247
16.282569885253906 -3.297095537185669 11.002346992492676 196 240 255
16.338180541992188 -2.9665722846984863 11.077880859375 238 255 250
16.23719024658203 -2.0035176277160645 11.374431610107422 255 255 238
16.244009017944336 -1.9753262996673584 11.377985954284668 255 255 248
16.244009017944336 -1.9753262996673584 11.377985954284668 255 255 248
16.27006721496582 -1.9650770425796509 11.378315925598145 11 1 0
16.032604217529297 -1.405055284500122 11.645444869995117 42 61 82
16.267709732055664 -1.8704432249069214 11.409807205200195 255 255 233
16.267709732055664 -1.8704432249069214 11.409807205200195 255 255 233
16.33162498474121 -2.581263780593872 11.201075553894043 226 255 253
16.045934677124023 -0.8566086292266846 11.79623031616211 81 70 56
16.278661727905273 -1.8493894338607788 11.424212455749512 233 233 227
16.376829147338867 -2.6883106231689453 11.164868354797363 236 255 255
16.382299423217773 -2.572192430496216 11.200592994689941 240 255 255
16.360761642456055 -1.9828948974609375 11.366665840148926 243 247 242
16.360761642456055 -1.9828948974609375 11.366665840148926 243 247 242
16.380104064941406 -1.8681312799453735 11.386383056640625 236 231 210
16.385204315185547 -1.7328519821166992 11.434187889099121 172 193 231
16.4323787689209 -1.1563724279403687 11.55589771270752 125 142 145
16.479820251464844 -3.309868812561035 10.99283504486084 129 178 210
16.479820251464844 -3.309868812561035 10.99283504486084 129 178 210
16.41584587097168 -2.015016555786133 11.364188194274902 255 255 251
16.45760154724121 -2.9772379398345947 11.10476303100586 241 251 255
16.423969268798828 -1.7241438627243042 11.446698188781738 91 150 206
16.452001571655273 -1.377439260482788 11.521178245544434 46 64 87
16.458723068237305 -1.961224913597107 11.371315956115723 255 254 247
16.458723068237305 -1.961224913597107 11.371315956115723 255 254 247
16.47969627380371 -1.939618468284607 11.366362571716309 129 68 4
16.28639030456543 -1.8241267204284668 11.502223014831543 171 167 166
16.478130340576172 -1.7081470489501953 11.428041458129883 13 28 54
16.44670295715332 -2.6236860752105713 11.21669864654541 7 95 165
16.44670295715332 -2.6236860752105713 11.21669864654541 7 95 165
16.478208541870117 -2.012049436569214 11.359068870544434 99 74 48
16.47566795349121 -1.884984016418457 11.39579963684082 254 245 241
16.514625549316406 -2.970876455307007 11.097334861755371 233 255 255
16.473323822021484 -1.3871915340423584 11.527830123901367 180 201 216
16.4932918548584 -1.3784644603729248 11.525004386901855 26 44 61
16.507761001586914 -2.713308811187744 11.175657272338867 238 253 249
16.504344940185547 -2.0268075466156006 11.35693645477295 255 255 237
16.505348205566406 -1.9650537967681885 11.375678062438965 255 248 213
16.501379013061523 -1.99593186378479 11.3711576461792 249 254 252
16.54180145263672 -1.3900582790374756 11.507225036621094 14 31 50
16.54180145263672 -1.3900582790374756 11.507225036621094 14 31 50
16.51451873779297 -1.8964910507202148 11.402448654174805 94 55 16
16.540315628051758 -2.6186940670013428 11.203997611999512 12 82 136
16.534029006958008 -2.0198233127593994 11.363166809082031 44 31 15
16.53746795654297 -1.986185908317566 11.37088394165039 44 16 0
16.53746795654297 -1.986185908317566 11.37088394165039 44 16 0
16.55644989013672 -2.5820419788360596 11.218270301818848 231 249 250
16.55523109436035 -2.008958101272583 11.372320175170898 248 253 251
16.562549591064453 -2.0345675945281982 11.36264419555664 255 255 222
16.572816848754883 -1.9038670063018799 11.400982856750488 188 190 178
16.596593856811523 -1.3854130506515503 11.541596412658691 0 8 31
16.601604461669922 -1.9573760032653809 11.391745567321777 132 83 15
16.618614196777344 -2.5743982791900635 11.231491088867188 27 89 149
16.620725631713867 -1.4166100025177002 11.540085792541504 37 55 78
16.607147216796875 -2.6242291927337646 11.235130310058594 11 80 143
16.61872100830078 -2.0067594051361084 11.400370597839355 248 254 255
16.636432647705078 -2.0407557487487793 11.381539344787598 244 248 253
16.636432647705078 -2.0407557487487793 11.381539344787598 244 248 253
16.656497955322266 -1.892635703086853 11.413178443908691 255 249 230
16.665206909179688 -1.3974277973175049 11.54930591583252 0 16 34
16.66452407836914 -1.462949514389038 11.534046173095703 208 232 250
16.66452407836914 -1.462949514389038 11.534046173095703 208 232 250
16.66834259033203 -2.5160505771636963 11.258153915405273 9 89 154
16.666996002197266 -2.598160743713379 11.245405197143555 226 244 255
16.68197250366211 -2.0127549171447754 11.40371036529541 35 7 0
16.68968391418457 -2.5616097450256348 11.262356758117676 17 96 163
16.68968391418457 -2.5616097450256348 11.262356758117676 17 96 163
16.694547653198242 -1.6978955268859863 11.495035171508789 28 31 45
16.723787307739258 -2.848273992538452 11.18065071105957 189 242 255
16.723787307739258 -2.848273992538452 11.18065071105957 189 242 255
16.7292537689209 -1.7944061756134033 11.45417308807373 36 33 48
16.733123779296875 -3.023352861404419 11.131542205810547 31 78 139
16.67202377319336 -2.0747170448303223 11.414623260498047 122 71 1
16.733266830444336 -2.816110610961914 11.189967155456543 20 80 139
16.728736877441406 -1.4218025207519531 11.55890941619873 222 239 255
16.728736877441406 -1.4218025207519531 11.55890941619873 222 239 255
16.740596771240234 -1.7100427150726318 11.482928276062012 30 29 39
16.75476837158203 -3.0466127395629883 11.12614631652832 21 75 135
16.748559951782227 -1.406169056892395 11.565488815307617 27 46 67
16.74175262451172 -1.91279137134552 11.441924095153809 255 254 247
16.728496551513672 -2.020875930786133 11.424856185913086 120 58 18
16.728496551513672 -2.020875930786133 11.424856185913086 120 58 18
16.728496551513672 -2.020875930786133 11.424856185913086 120 58 18
16.775638580322266 -3.0545144081115723 11.131143569946289 167 215 255
16.74597930908203 -2.77042818069458 11.225408554077148 87 129 176
16.779766082763672 -1.4078730344772339 11.579099655151367 26 43 69
16.779766082763672 -1.4078730344772339 11.579099655151367 26 43 69
16.750581741333008 -1.4371554851531982 11.590702056884766 234 253 255
16.775041580200195 -1.4339656829833984 11.58082389831543 0 0 8
16.775041580200195 -1.4339656829833984 11.58082389831543 0 0 8
16.765060424804688 -1.9650452136993408 11.447693824768066 116 68 2
16.785367965698242 -3.0912654399871826 11.144661903381348 38 85 137
16.797399520874023 -2.9985909461975098 11.172138214111328 10 115 182
16.80162811279297 -2.943709373474121 11.184002876281738 186 240 255
16.80162811279297 -2.943709373474121 11.184002876281738 186 240 255
16.78645896911621 -2.888758897781372 11.20885181427002 5 98 167
16.783781051635742 -2.7590160369873047 11.248247146606445 14 96 151
16.800491333007812 -2.34669828414917 11.3521146774292 226 253 255
16.80620002746582 -2.9267466068267822 11.196816444396973 182 246 255
16.817821502685547 -1.4608495235443115 11.580145835876465 236 252 255
16.818532943725586 -2.5819664001464844 11.29137897491455 11 91 152
16.826934814453125 -2.388751268386841 11.33888053894043 54 116 164
16.834869384765625 -1.4373657703399658 11.590313911437988 203 220 233
16.80907440185547 -2.9621269702911377 11.202009201049805 37 113 172
16.82468032836914 -3.028862476348877 11.176541328430176 20 79 135
16.838693618774414 -2.0124881267547607 11.441842079162598 113 76 32
16.824138641357422 -2.8300282955169678 11.257004737854004 230 253 255
16.824138641357422 -2.8300282955169678 11.257004737854004 230 253 255
16.837705612182617 -2.9426653385162354 11.221138000488281 228 255 255
16.84787368774414 -2.01119327545166 11.467134475708008 255 255 240
16.836158752441406 -2.7967028617858887 11.26844310760498 41 95 150
16.85332489013672 -2.6021039485931396 11.311351776123047 226 253 250
16.8765811920166 -3.0236825942993164 11.194745063781738 218 242 248
16.85264778137207 -2.8573153018951416 11.255697250366211 23 98 177
16.854978561401367 -2.978599786758423 11.222479820251465 75 114 146
16.871788024902344 -3.0643842220306396 11.191510200500488 18 88 148
16.865427017211914 -2.93009877204895 11.232173919677734 84 126 179
16.86998176574707 -2.7570433616638184 11.278696060180664 189 237 255
16.86998176574707 -2.7570433616638184 11.278696060180664 189 237 255
16.869827270507812 -3.1089024543762207 11.187166213989258 150 207 239
16.860219955444336 -2.99092960357666 11.229737281799316 220 247 255
16.87022590637207 -2.6800782680511475 11.313619613647461 31 102 169
16.926931381225586 -2.5182077884674072 11.324174880981445 37 114 177
16.926931381225586 -2.5182077884674072 11.324174880981445 37 114 177
16.94930648803711 -3.071737766265869 11.175326347351074 28 96 169
16.90110206604004 -2.7636876106262207 11.291485786437988 167 214 245
16.91606330871582 -2.0880038738250732 11.466970443725586 255 255 241
16.897563934326172 -2.7448601722717285 11.3014554977417 23 68 105
16.902130126953125 -2.610419750213623 11.343016624450684 217 243 255
16.927873611450195 -3.0006747245788574 11.23123836517334 23 101 168
16.91218376159668 -2.604041576385498 11.349124908447266 216 252 255
16.907623291015625 -2.6354150772094727 11.349933624267578 215 240 244
16.910602569580078 -2.846980094909668 11.291362762451172 55 88 133
16.864139556884766 -2.810042381286621 11.3287353515625 55 100 137
16.921546936035156 -2.816528558731079 11.294053077697754 47 96 134
16.91525650024414 -2.0578579902648926 11.504497528076172 108 68 40
16.918975830078125 -2.926018714904785 11.269316673278809 28 106 182
16.94414520263672 -2.0961146354675293 11.47950267791748 255 252 239
16.94414520263672 -2.0961146354675293 11.47950267791748 255 252 239
16.922386169433594 -3.0111119747161865 11.259413719177246 20 105 177
16.96158218383789 -2.0383083820343018 11.510444641113281 255 255 244
16.96158218383789 -2.0383083820343018 11.510444641113281 255 255 244
16.944732666015625 -2.6027274131774902 11.36669635772705 24 105 180
16.944732666015625 -2.6027274131774902 11.36669635772705 24 105 180
16.962814331054688 -3.1177053451538086 11.217044830322266 24 78 143
16.9601993560791 -2.957564353942871 11.264253616333008 138 201 255
16.9754695892334 -3.1032702922821045 11.219260215759277 159 201 246
16.9639892578125 -3.098132848739624 11.22910213470459 160 205 249
16.937408447265625 -2.855034828186035 11.312736511230469 213 236 238
16.986482620239258 -2.1046671867370605 11.498737335205078 255 255 240
16.986482620239258 -2.1046671867370605 11.498737335205078 255 255 240
16.970312118530273 -3.312603712081909 11.186570167541504 204 228 240
16.97124671936035 -2.90077805519104 11.300149917602539 4 88 160
16.974620819091797 -3.0649921894073486 11.25448226928711 12 72 132
16.98589515686035 -3.0893266201019287 11.248457908630371 155 204 252
16.988977432250977 -3.343916177749634 11.195898056030273 195 221 228
17.024545669555664 -2.6410977840423584 11.372459411621094 211 230 235
17.00377655029297 -2.4125049114227295 11.452156066894531 201 224 232
17.00377655029297 -2.4125049114227295 11.452156066894531 201 224 232
17.03645896911621 -2.9413647651672363 11.320528984069824 122 172 218
17.017751693725586 -3.4002745151519775 11.20958423614502 225 234 248
17.063640594482422 -2.6287930011749268 11.414724349975586 3 88 158
17.063640594482422 -2.6287930011749268 11.414724349975586 3 88 158
17.083011627197266 -1.4112927913665771 11.744803428649902 232 252 255
17.08664321899414 -1.4657055139541626 11.729870796203613 32 40 69
17.08664321899414 -1.4657055139541626 11.729870796203613 32 40 69
17.07956886291504 -1.452680230140686 11.742737770080566 40 58 65
17.048301696777344 -3.3964860439300537 11.23388671875 200 226 233
17.073606491088867 -2.671868324279785 11.433878898620605 194 221 231
17.059680938720703 -3.4421298503875732 11.22981071472168 201 231 232
17.09767723083496 -2.575791358947754 11.454188346862793 6 87 155
17.06848907470703 -3.384351968765259 11.24822998046875 0 0 11
17.08102035522461 -2.6942715644836426 11.445743560791016 194 231 239
17.076873779296875 -3.3970460891723633 11.25539779663086 241 249 255
17.073692321777344 -3.345991611480713 11.273024559020996 198 225 229
17.13770294189453 -1.4997594356536865 11.760486602783203 235 254 255
17.099470138549805 -2.6612331867218018 11.477617263793945 0 81 146
17.110456466674805 -3.3999853134155273 11.281357765197754 206 235 242
17.152847290039062 -2.426414728164673 11.531107902526855 207 233 245
17.152847290039062 -2.426414728164673 11.531107902526855 207 233 245
17.131759643554688 -3.397029161453247 11.300957679748535 246 252 255
17.074771881103516 -3.433107852935791 11.337675094604492 12 29 38
17.186582565307617 -1.509237289428711 11.81265926361084 219 244 254
17.189815521240234 -1.482703447341919 11.822371482849121 224 246 251
17.229949951171875 -2.579822540283203 11.487247467041016 191 222 223
17.229949951171875 -2.579822540283203 11.487247467041016 191 222 223
17.15620994567871 -2.4514999389648438 11.572203636169434 197 227 232
17.151958465576172 -2.6816773414611816 11.510393142700195 188 210 216
17.16507339477539 -2.5728447437286377 11.540261268615723 187 215 222
17.20146369934082 -1.4854665994644165 11.828696250915527 230 251 255
17.231521606445312 -1.2705402374267578 11.872211456298828 35 29 24
17.199316024780273 -1.4643217325210571 11.838857650756836 0 10 28
17.128002166748047 -3.422844171524048 11.3329496383667 206 230 236
17.128002166748047 -3.422844171524048 11.3329496383667 206 230 236
17.172630310058594 -3.3992819786071777 11.338712692260742 24 40 52
17.204891204833984 -2.649197816848755 11.55553150177002 5 79 133
17.193708419799805 -3.4369418621063232 11.338865280151367 200 223 231
17.196626663208008 -3.3770718574523926 11.360366821289062 188 217 224
17.213054656982422 -2.5906801223754883 11.580260276794434 196 219 227
17.213054656982422 -2.5906801223754883 11.580260276794434 196 219 227
17.218704223632812 -3.48503041267395 11.319853782653809 174 202 209
17.218704223632812 -3.48503041267395 11.319853782653809 174 202 209
17.202425003051758 -3.5138843059539795 11.33276081085205 85 99 111
17.221284866333008 -3.4640021324157715 11.341963768005371 25 31 44
17.2121524810791 -3.4089436531066895 11.365493774414062 0 0 10
17.260772705078125 -1.4372987747192383 11.91262435913086 227 255 255
17.21925926208496 -3.4529247283935547 11.360016822814941 244 252 255
17.21925926208496 -3.4529247283935547 11.360016822814941 244 252 255
17.219945907592773 -3.424269914627075 11.369678497314453 209 227 238
17.216440200805664 -2.7109673023223877 11.588167190551758 183 208 212
17.21062660217285 -3.466081142425537 11.378759384155273 0 0 8
17.230091094970703 -2.4690914154052734 11.655452728271484 197 220 228
17.217500686645508 -3.4097180366516113 11.393234252929688 36 58 69
17.217500686645508 -3.4097180366516113 11.393234252929688 36 58 69
17.274972915649414 -1.47800612449646 11.925897598266602 168 184 201
17.23185920715332 -2.6862432956695557 11.608721733093262 212 236 248
17.268552780151367 -1.5291410684585571 11.92469596862793 0 10 28
17.299909591674805 -1.4809081554412842 11.927393913269043 218 241 249
17.28990364074707 -1.5183438062667847 11.924428939819336 229 252 255
17.286157608032227 -2.4974331855773926 11.658835411071777 4 55 111
17.259307861328125 -3.4192991256713867 11.418902397155762 178 203 213
17.325517654418945 -1.4198484420776367 11.981415748596191 10 29 44
17.267959594726562 -2.739799976348877 11.642180442810059 173 204 227
17.230510711669922 -3.3871188163757324 11.489156723022461 216 246 255
17.321264266967773 -1.5098555088043213 11.993586540222168 107 129 141
17.321264266967773 -1.5098555088043213 11.993586540222168 107 129 141
17.321264266967773 -1.5098555088043213 11.993586540222168 107 129 141
15.103875160217285 -3.9373552799224854 13.198822021484375 74 82 82
17.522441864013672 -2.132986068725586 12.346156120300293 120 130 137
17.511028289794922 -2.0858564376831055 12.370800018310547 118 130 134
17.502107620239258 -2.169203042984009 12.352337837219238 117 129 135
17.49742889404297 -1.5072349309921265 12.593316078186035 0 4 9
17.49742889404297 -1.5072349309921265 12.593316078186035 0 4 9
17.484636306762695 -2.140782117843628 12.402560234069824 0 0 4
17.52629280090332 -1.583031177520752 12.567617416381836 177 201 207
17.468013763427734 -2.3606204986572266 12.362489700317383 10 20 27
17.390483856201172 -3.248685121536255 12.150595664978027 11 23 33
17.505229949951172 -2.1391196250915527 12.422531127929688 128 139 143
17.505229949951172 -2.1391196250915527 12.422531127929688 128 139 143
17.526473999023438 -1.96412992477417 12.4685640335083 172 190 201
17.477903366088867 -3.2542288303375244 12.105677604675293 159 179 184
17.50015640258789 -2.069474697113037 12.486041069030762 3 11 18
17.501062393188477 -2.104238748550415 12.476542472839355 113 125 127
17.489192962646484 -3.1596319675445557 12.141584396362305 139 155 161
17.491411209106445 -3.209684371948242 12.12591552734375 135 155 160
17.498332977294922 -2.1246085166931152 12.489459037780762 11 14 19
17.487043380737305 -2.409212827682495 12.405755996704102 93 105 109
17.421833038330078 -3.2325239181518555 12.191924095153809 20 26 33
17.421833038330078 -3.2325239181518555 12.191924095153809 20 26 33
17.489152908325195 -2.5517852306365967 12.367486000061035 49 60 68
17.489152908325195 -2.5517852306365967 12.367486000061035 49 60 68
17.48921012878418 -2.617738723754883 12.347290992736816 52 62 69
17.49827766418457 -2.1939680576324463 12.481562614440918 152 162 169
17.482616424560547 -2.8773767948150635 12.26926040649414 75 87 93
17.512874603271484 -2.0743703842163086 12.511092185974121 191 207 214
17.510005950927734 -2.030795097351074 12.528844833374023 177 198 206
17.471019744873047 -2.9653048515319824 12.266268730163574 139 151 155
17.516752243041992 -2.0587122440338135 12.534966468811035 96 111 120
17.469419479370117 -2.9267215728759766 12.287103652954102 111 125 131
17.449668884277344 -3.2909996509552 12.196635246276855 17 23 30
17.49228858947754 -2.727483034133911 12.348043441772461 198 210 214
17.509252548217773 -1.6456902027130127 12.698938369750977 176 189 197
17.52509117126465 -1.967971920967102 12.595720291137695 155 164 174
17.454076766967773 -2.9479427337646484 12.330682754516602 10 16 23
17.497297286987305 -3.0078859329223633 12.277812004089355 26 34 41
17.49806785583496 -2.171900987625122 12.569328308105469 105 124 127
17.474931716918945 -2.931124210357666 12.336244583129883 148 160 162
17.48192024230957 -3.0290472507476807 12.302212715148926 116 125 129
17.48468589782715 -2.9919822216033936 12.326149940490723 110 121 125
17.509685516357422 -2.075373649597168 12.619184494018555 89 101 111
17.505962371826172 -2.143155574798584 12.601686477661133 97 109 113
17.466724395751953 -3.406165361404419 12.211578369140625 97 114 117
17.472002029418945 -2.208904504776001 12.612378120422363 111 124 126
17.494192123413086 -2.9332969188690186 12.352916717529297 28 40 42
17.457651138305664 -3.6093647480010986 12.16130542755127 178 190 194
17.505041122436523 -2.300156354904175 12.562726974487305 111 126 128
17.48087501525879 -2.952819347381592 12.377090454101562 108 120 124
17.487974166870117 -2.2029032707214355 12.626041412353516 0 0 4
17.449337005615234 -3.469924211502075 12.239620208740234 159 175 182
17.37702178955078 -3.63185977935791 12.248793601989746 30 34 39
17.50257110595703 -2.4628632068634033 12.536772727966309 10 19 22
17.491287231445312 -2.6349546909332275 12.48906421661377 97 114 111
17.488126754760742 -2.147146463394165 12.661706924438477 101 112 116
17.479839324951172 -2.740767002105713 12.468679428100586 122 132 132
17.468677520751953 -3.0411202907562256 12.378120422363281 138 149 153
17.456148147583008 -3.3449320793151855 12.297943115234375 145 159 165
17.485734939575195 -2.4637837409973145 12.574655532836914 18 21 29
17.47258186340332 -2.762037992477417 12.485344886779785 10 14 15
17.46778678894043 -2.589566469192505 12.557233810424805 138 152 151
17.46698570251465 -2.918006420135498 12.447918891906738 124 136 140
17.46917724609375 -3.032433032989502 12.415375709533691 25 31 36
17.46917724609375 -3.032433032989502 12.415375709533691 25 31 36
17.45401382446289 -2.964798927307129 12.461867332458496 106 118 122
17.45401382446289 -2.964798927307129 12.461867332458496 106 118 122
17.456449508666992 -2.6394400596618652 12.587644577026367 156 169 171
17.46415138244629 -3.068803071975708 12.439024925231934 122 133 137
17.46605682373047 -2.2247400283813477 12.727556228637695 0 3 6
17.46605682373047 -2.2247400283813477 12.727556228637695 0 3 6
17.418363571166992 -3.3005881309509277 12.402859687805176 154 166 170
17.43973159790039 -3.49288010597229 12.321100234985352 187 202 205
17.45614242553711 -2.44958233833313 12.667902946472168 142 150 150
17.481618881225586 -2.217864513397217 12.735572814941406 113 128 131
17.400131225585938 -3.5271449089050293 12.359257698059082 45 51 56
17.46078109741211 -2.322085380554199 12.718801498413086 158 170 170
17.465538024902344 -2.2325327396392822 12.74830436706543 0 5 8
17.465538024902344 -2.2325327396392822 12.74830436706543 0 5 8
17.470293045043945 -2.088994026184082 12.799253463745117 161 177 184
17.447362899780273 -3.2206902503967285 12.437104225158691 135 147 149
17.457744598388672 -3.054609775543213 12.488566398620605 18 27 31
17.4749755859375 -2.623486280441284 12.624701499938965 131 147 146
17.4749755859375 -2.623486280441284 12.624701499938965 131 147 146
17.452468872070312 -3.4760780334472656 12.352531433105469 50 53 61
17.46346092224121 -2.179788827896118 12.788308143615723 117 120 125
17.4495906829834 -2.1960582733154297 12.802833557128906 0 1 6
17.42744255065918 -3.067899465560913 12.524823188781738 134 151 154
17.430978775024414 -3.6499528884887695 12.324056625366211 133 148 151
17.436601638793945 -3.3244380950927734 12.431073188781738 143 157 156
17.45136070251465 -2.262742280960083 12.784899711608887 124 134 134
17.44281578063965 -2.4877781867980957 12.725993156433105 0 0 3
17.44281578063965 -2.4877781867980957 12.725993156433105 0 0 3
17.43990707397461 -3.0349135398864746 12.54082202911377 133 145 149
17.441673278808594 -2.4961109161376953 12.735654830932617 15 19 24
17.455028533935547 -3.0697994232177734 12.53048324584961 48 55 58
17.438440322875977 -2.9979779720306396 12.571553230285645 117 132 134
17.443004608154297 -2.49843692779541 12.742094039916992 0 0 5
17.43080711364746 -3.2890191078186035 12.483563423156738 133 148 151
17.446666717529297 -2.1780009269714355 12.861705780029297 0 4 7
17.437013626098633 -1.6630538702011108 13.071218490600586 143 166 174
17.427310943603516 -2.19918155670166 12.89289379119873 116 121 122
17.4325008392334 -2.1552894115448 12.904685020446777 177 192 195
17.413131713867188 -2.4882938861846924 12.819849967956543 156 162 161
17.41261863708496 -2.533979892730713 12.815411567687988 150 158 157
17.41261863708496 -2.533979892730713 12.815411567687988 150 158 157
17.406526565551758 -3.0158541202545166 12.665271759033203 143 155 157
17.39998435974121 -2.0894386768341064 13.00514030456543 177 190 192
17.41920280456543 -2.2088801860809326 12.961578369140625 0 0 0
17.174270629882812 -2.8879916667938232 13.480428695678711 172 187 190
19.69655990600586 -2.6143858432769775 11.924901962280273 14 1 0
18.726219177246094 -1.9584702253341675 13.995826721191406 27 17 7
18.707849502563477 -1.9277284145355225 14.058843612670898 142 137 128
19.309310913085938 -2.1739330291748047 13.42005443572998 19 5 0
19.227785110473633 -2.1126482486724854 13.617570877075195 23 7 0
17.950416564941406 -1.9673300981521606 15.731059074401855 174 165 156
18.678285598754883 -1.69783616065979 14.948749542236328 18 7 0
18.678285598754883 -1.69783616065979 14.948749542236328 18 7 0
19.887229919433594 -2.127261161804199 14.154587745666504 66 46 35
19.5716552734375 -1.395151972770691 16.706512451171875 189 186 178
18.766340255737305 -2.9964895248413086 9.297036170959473 253 255 244
18.7862548828125 -3.4321651458740234 9.173818588256836 239 254 255
18.80552101135254 -3.3937315940856934 9.181096076965332 228 255 246
18.84010124206543 -2.994919776916504 9.292852401733398 255 254 255
18.874778747558594 -2.988058090209961 9.311437606811523 248 255 252
18.874778747558594 -2.988058090209961 9.311437606811523 248 255 252
18.904869079589844 -2.979717254638672 9.295265197753906 255 241 222
18.907238006591797 -3.321275472640991 9.201547622680664 240 255 249
18.926843643188477 -2.9700734615325928 9.284902572631836 128 74 13
18.926843643188477 -2.9700734615325928 9.284902572631836 128 74 13
18.930051803588867 -3.370971441268921 9.186480522155762 18 104 174
18.932308197021484 -3.0156376361846924 9.287934303283691 255 255 254
18.937294006347656 -2.854780912399292 9.333585739135742 97 154 209
18.956527709960938 -2.9862470626831055 9.291666030883789 255 255 240
18.97732162475586 -3.0037286281585693 9.293931007385254 250 255 255
18.983867645263672 -2.669617176055908 9.383330345153809 211 234 250
18.972213745117188 -3.5407090187072754 9.150826454162598 231 247 253
18.972213745117188 -3.5407090187072754 9.150826454162598 231 247 253
18.96929359436035 -3.401102066040039 9.194501876831055 227 248 246
18.99112319946289 -2.974318265914917 9.296870231628418 127 69 4
18.992755889892578 -2.9516162872314453 9.30447769165039 95 39 0
19.0036563873291 -2.6699798107147217 9.386011123657227 234 253 255
19.0036563873291 -2.6699798107147217 9.386011123657227 234 253 255
18.98599624633789 -3.038475513458252 9.296548843383789 138 80 8
18.99066925048828 -3.5345945358276367 9.16066837310791 39 99 159
18.999366760253906 -3.007875680923462 9.3013277053833 247 253 248
19.003740310668945 -3.3261682987213135 9.211861610412598 235 252 249
19.0039119720459 -2.9472451210021973 9.321944236755371 217 227 221
19.018768310546875 -3.0371334552764893 9.308507919311523 129 73 0
19.032978057861328 -3.3212831020355225 9.22391128540039 44 88 149
19.037839889526367 -3.3387484550476074 9.22015380859375 84 119 152
19.04903221130371 -3.011780261993408 9.304605484008789 244 255 254
19.0550537109375 -3.019282579421997 9.30954360961914 106 117 115
19.054658889770508 -3.3329782485961914 9.236200332641602 228 250 255
19.074417114257812 -3.0109293460845947 9.31505298614502 90 65 55
19.070146560668945 -2.893564462661743 9.352417945861816 42 25 16
19.06512451171875 -3.754056692123413 9.112014770507812 102 161 211
19.076757431030273 -3.002699851989746 9.320249557495117 100 95 92
19.077024459838867 -2.8340466022491455 9.370016098022461 17 20 35
19.080020904541016 -3.3154795169830322 9.234787940979004 36 97 161
19.080020904541016 -3.3154795169830322 9.234787940979004 36 97 161
19.08092498779297 -2.880145788192749 9.36091136932373 28 28 40
19.069015502929688 -3.5044357776641846 9.196170806884766 24 103 166
19.0731143951416 -3.534754514694214 9.188681602478027 15 103 180
19.10953140258789 -2.6798062324523926 9.413782119750977 185 204 211
19.103679656982422 -3.017092704772949 9.32392406463623 91 45 4
19.103679656982422 -3.017092704772949 9.32392406463623 91 45 4
19.09326934814453 -3.442033052444458 9.215258598327637 55 106 156
19.10780906677246 -3.204010486602783 9.286033630371094 221 237 249
19.1396427154541 -2.6984803676605225 9.423380851745605 236 254 255
19.1302547454834 -3.000598192214966 9.34485149383545 255 255 241
19.13170051574707 -3.1938188076019287 9.294010162353516 232 254 252
19.148326873779297 -2.6843643188476562 9.429789543151855 236 253 255
19.148326873779297 -2.6843643188476562 9.429789543151855 236 253 255
19.128925323486328 -3.4254229068756104 9.230122566223145 29 99 158
19.12149429321289 -3.49493408203125 9.215669631958008 20 107 181
19.126018524169922 -3.2100436687469482 9.304739952087402 38 101 152
19.134862899780273 -3.321293830871582 9.265810012817383 36 105 168
19.127389907836914 -3.479896306991577 9.230083465576172 212 255 255
19.152788162231445 -3.465477466583252 9.233846664428711 228 250 255
19.152788162231445 -3.465477466583252 9.233846664428711 228 250 255
19.152658462524414 -3.5260627269744873 9.220451354980469 218 247 255
19.163408279418945 -3.448251247406006 9.236869812011719 60 118 170
19.171287536621094 -3.480863094329834 9.230780601501465 37 99 159
19.161531448364258 -3.5675065517425537 9.216721534729004 208 232 244
19.158369064331055 -3.515932559967041 9.235078811645508 106 148 201
19.173904418945312 -3.3502583503723145 9.275629043579102 48 98 156
19.173904418945312 -3.3502583503723145 9.275629043579102 48 98 156
19.17997932434082 -3.03591251373291 9.367907524108887 69 47 36
19.179763793945312 -3.457533359527588 9.246672630310059 190 217 227
19.181108474731445 -3.5342464447021484 9.235970497131348 227 252 255
19.181604385375977 -3.483384370803833 9.251273155212402 16 94 163
19.187114715576172 -3.3406288623809814 9.290186882019043 209 244 254
19.161577224731445 -3.585399866104126 9.241556167602539 19 93 165
19.203388214111328 -3.04994535446167 9.373336791992188 255 255 245
19.18854522705078 -3.3526554107666016 9.295312881469727 206 233 237
19.18854522705078 -3.3526554107666016 9.295312881469727 206 233 237
19.198965072631836 -3.473742723464966 9.254761695861816 97 130 169
19.194541931152344 -3.4548332691192627 9.265819549560547 100 133 166
19.214786529541016 -3.01810622215271 9.389161109924316 255 249 236
19.214786529541016 -3.01810622215271 9.389161109924316 255 249 236
19.21334457397461 -3.0478785037994385 9.382009506225586 219 238 229
19.193172454833984 -3.563458204269409 9.248028755187988 7 97 168
19.21298599243164 -3.335580825805664 9.301389694213867 6 84 161
18.37965202331543 -4.0607757568359375 9.770251274108887 39 43 44
19.212047576904297 -3.477952003479004 9.268417358398438 218 238 239
19.22266387939453 -3.50148606300354 9.26889705657959 9 84 152
19.21225929260254 -3.7296056747436523 9.213860511779785 200 232 245
19.216676712036133 -3.6032402515411377 9.252554893493652 153 206 243
19.22427749633789 -3.532119035720825 9.268523216247559 3 88 160
19.22427749633789 -3.532119035720825 9.268523216247559 3 88 160
19.239120483398438 -3.228351593017578 9.355870246887207 198 227 234
19.239120483398438 -3.228351593017578 9.355870246887207 198 227 234
19.230022430419922 -3.347755193710327 9.330079078674316 197 223 230
19.221752166748047 -3.747178077697754 9.220010757446289 190 218 225
19.235647201538086 -3.58046555519104 9.2675142288208 144 192 220
19.283397674560547 -2.6769587993621826 9.508017539978027 0 3 18
19.284847259521484 -2.6972343921661377 9.512296676635742 7 15 32
19.280338287353516 -2.6894495487213135 9.520044326782227 82 93 107
19.280338287353516 -2.6894495487213135 9.520044326782227 82 93 107
19.26056480407715 -3.3434877395629883 9.345976829528809 14 95 170
19.27634048461914 -3.371906280517578 9.347270011901855 203 224 226
19.27787971496582 -3.3122434616088867 9.369845390319824 8 92 157
18.41098976135254 -4.060433387756348 9.878424644470215 71 78 81
19.26547622680664 -3.759471893310547 9.245147705078125 95 117 128
19.283273696899414 -3.3612096309661865 9.354570388793945 194 225 228
19.28026008605957 -3.7502152919769287 9.253421783447266 204 229 231
19.299259185791016 -3.3682260513305664 9.363648414611816 6 71 140
19.299678802490234 -3.3866922855377197 9.370841026306152 201 226 236
19.335437774658203 -2.7060887813568115 9.555161476135254 0 3 20
19.344018936157227 -2.707521438598633 9.562760353088379 225 244 251
19.326610565185547 -3.250462293624878 9.4210786819458 191 217 224
19.2989559173584 -3.7931432723999023 9.275137901306152 220 238 249
19.31612777709961 -3.3763177394866943 9.394301414489746 194 217 225
19.321474075317383 -3.315788745880127 9.413273811340332 190 214 220
19.354711532592773 -2.7247517108917236 9.573046684265137 230 253 255
19.32242202758789 -3.3063673973083496 9.418426513671875 193 216 224
19.32242202758789 -3.3063673973083496 9.418426513671875 193 216 224
19.338037490844727 -3.354779005050659 9.427371978759766 3 83 144
19.34876251220703 -3.324549674987793 9.435246467590332 200 219 224
19.34876251220703 -3.324549674987793 9.435246467590332 200 219 224
19.329771041870117 -3.7973599433898926 9.307061195373535 202 231 236
19.397708892822266 -2.7039718627929688 9.606358528137207 233 252 255
19.39833641052246 -2.6945576667785645 9.612821578979492 15 34 49
19.394161224365234 -2.714789390563965 9.61131477355957 0 0 25
19.396087646484375 -2.7065696716308594 9.615917205810547 132 153 168
19.33329200744629 -3.84066104888916 9.304970741271973 55 79 85
19.40093231201172 -2.7406420707702637 9.606175422668457 2 24 35
19.36090850830078 -3.3951759338378906 9.429340362548828 180 208 215
19.369829177856445 -3.2606401443481445 9.465784072875977 192 217 219
19.374574661254883 -3.278109073638916 9.468542098999023 204 226 238
19.367340087890625 -3.3809611797332764 9.443140983581543 187 229 234
19.34874725341797 -3.8156161308288574 9.320511817932129 2 23 31
19.42291259765625 -2.6743268966674805 9.648780822753906 17 35 52
19.427143096923828 -2.7276368141174316 9.64813232421875 107 127 138
19.427143096923828 -2.7276368141174316 9.64813232421875 107 127 138
19.427143096923828 -2.7276368141174316 9.64813232421875 107 127 138
19.36417579650879 -3.786832094192505 9.354705810546875 179 203 215
19.38919448852539 -3.411386013031006 9.460208892822266 144 175 196
19.38919448852539 -3.411386013031006 9.460208892822266 144 175 196
19.530757904052734 -3.0960676670074463 9.826881408691406 6 19 27
19.536113739013672 -3.050825834274292 9.855087280273438 117 129 135
19.5340518951416 -3.098440408706665 9.84115982055664 126 135 138
19.54037094116211 -3.0778579711914062 9.84418773651123 124 133 137
19.53773307800293 -3.0887160301208496 9.852487564086914 8 17 20
19.556516647338867 -2.777069330215454 9.94951343536377 165 187 193
19.54806900024414 -2.9848949909210205 9.90543270111084 165 187 192
19.546119689941406 -2.9827847480773926 9.909684181213379 165 187 192
19.546119689941406 -2.9827847480773926 9.909684181213379 165 187 192
19.514741897583008 -3.530453681945801 9.75362777709961 129 147 154
19.555618286132812 -2.7981810569763184 9.994893074035645 164 187 195
19.540935516357422 -3.077423095703125 9.906159400939941 11 11 17
19.533296585083008 -3.229670763015747 9.865009307861328 152 164 164
19.541799545288086 -3.116978168487549 9.90073013305664 139 151 153
19.51106834411621 -3.7014787197113037 9.71493911743164 136 150 156
19.53036117553711 -3.311396598815918 9.845029830932617 69 84 87
19.53036117553711 -3.311396598815918 9.845029830932617 69 84 87
19.529338836669922 -3.3487515449523926 9.835235595703125 30 42 48
19.51222801208496 -3.6753089427948 9.733850479125977 129 149 154
19.548871994018555 -2.9963791370391846 9.958544731140137 43 62 69
19.548978805541992 -3.0423378944396973 9.95044994354248 85 104 109
19.51169776916504 -3.735161542892456 9.740644454956055 150 167 170
19.51169776916504 -3.735161542892456 9.740644454956055 150 167 170
19.511478424072266 -3.812530994415283 9.718032836914062 138 158 163
19.525083541870117 -3.408158540725708 9.862356185913086 4 9 10
19.514001846313477 -3.713716983795166 9.761897087097168 133 145 149
19.515138626098633 -3.7964742183685303 9.731834411621094 35 44 48
19.52260398864746 -3.4425456523895264 9.862821578979492 24 32 32
19.52125358581543 -3.4409964084625244 9.865646362304688 13 21 21
19.51186180114746 -3.7286128997802734 9.767919540405273 38 42 47
19.541536331176758 -3.1754276752471924 9.95107364654541 156 168 170
19.541536331176758 -3.1754276752471924 9.95107364654541 156 168 170
19.545381546020508 -3.058598518371582 10.001360893249512 81 100 105
19.541744232177734 -3.139864683151245 9.977998733520508 120 127 130
19.511991500854492 -3.788389205932617 9.765645027160645 138 150 154
19.51659393310547 -3.5852761268615723 9.854148864746094 124 136 140
19.531251907348633 -3.3282310962677 9.93939208984375 3 8 7
19.51421356201172 -3.670830249786377 9.827155113220215 144 156 160
19.51421356201172 -3.670830249786377 9.827155113220215 144 156 160
19.509963989257812 -3.7546541690826416 9.80908203125 139 151 155
19.514692306518555 -3.5800576210021973 9.877628326416016 41 52 56
19.5261173248291 -3.3676085472106934 9.950079917907715 134 146 146
19.50377655029297 -3.9090969562530518 9.764188766479492 159 171 175
19.53030776977539 -3.263744831085205 9.988812446594238 137 150 152
19.521434783935547 -3.0689001083374023 10.105533599853516 85 98 106
19.513526916503906 -3.594727039337158 9.912001609802246 48 57 61
19.50747299194336 -3.7164502143859863 9.87720012664795 160 171 175
20.403017044067383 -2.986985445022583 10.771495819091797 81 69 57
20.52391242980957 -2.924318790435791 11.051182746887207 52 37 28
21.350332260131836 -3.6102023124694824 8.886301040649414 67 57 47
21.31481170654297 -3.573246479034424 9.014774322509766 64 54 47
20.77092170715332 -3.0472726821899414 10.728548049926758 26 14 2
21.356447219848633 -3.5525412559509277 9.1087646484375 66 55 51
21.358285903930664 -3.5352797508239746 9.175848960876465 71 59 49
21.19343376159668 -3.146470546722412 10.787317276000977 101 85 73
21.55797576904297 -3.149327278137207 10.76555061340332 127 121 114
21.845077514648438 -3.3587684631347656 10.078532218933105 127 117 110
21.845077514648438 -3.3587684631347656 10.078532218933105 127 117 110
16.585344314575195 -2.6849331855773926 11.6322021484375 228 251 247
16.662799835205078 -1.172939658164978 12.066071510314941 13 27 39
16.658002853393555 -2.3020472526550293 11.71169662475586 229 253 251
16.640424728393555 -2.955350399017334 11.518438339233398 225 251 255
16.662616729736328 -2.5543973445892334 11.634978294372559 233 254 255
16.699745178222656 -2.28973126411438 11.692605018615723 237 255 255
16.664443969726562 -3.534090280532837 11.315614700317383 118 130 132
16.66970443725586 -2.9341607093811035 11.518460273742676 236 253 250
16.707069396972656 -2.6229636669158936 11.588080406188965 9 83 137
16.728160858154297 -2.680546283721924 11.571273803710938 231 242 250
16.781421661376953 -2.6971027851104736 11.556486129760742 33 80 134
16.781421661376953 -2.6971027851104736 11.556486129760742 33 80 134
16.79564666748047 -2.6182384490966797 11.575089454650879 16 96 157
16.79564666748047 -2.6182384490966797 11.575089454650879 16 96 157
16.84225082397461 -1.9740885496139526 11.744122505187988 246 247 237
16.832101821899414 -2.002622604370117 11.747864723205566 253 255 244
16.87278175354004 -1.9666193723678589 11.735685348510742 95 52 25
16.826295852661133 -2.7816872596740723 11.512460708618164 22 84 155
16.886520385742188 -2.002249002456665 11.71491527557373 47 23 17
16.795673370361328 -2.7197744846343994 11.575592041015625 226 247 245
16.84439468383789 -2.3445444107055664 11.650344848632812 9 70 120
16.8244571685791 -2.9686319828033447 11.46020221710205 27 91 155
17.0236759185791 -1.1517643928527832 11.870290756225586 144 146 140
16.900644302368164 -1.9463998079299927 11.736572265625 255 249 215
16.89314079284668 -1.8434522151947021 11.783488273620605 124 69 0
16.89497947692871 -2.0053064823150635 11.731696128845215 255 253 244
16.90753173828125 -2.252204656600952 11.650545120239258 2 54 101
16.891218185424805 -2.36533522605896 11.636968612670898 18 93 149
16.921022415161133 -2.624441146850586 11.524433135986328 19 100 168
16.926128387451172 -2.683344602584839 11.521235466003418 230 249 255
16.973920822143555 -1.9428086280822754 11.741706848144531 255 255 248
16.968181610107422 -1.9688471555709839 11.7424955368042 255 254 244
16.968769073486328 -2.001535415649414 11.730679512023926 255 255 251
16.968769073486328 -2.001535415649414 11.730679512023926 255 255 251
17.006820678710938 -1.9378843307495117 11.715432167053223 95 57 15
16.960237503051758 -2.644535779953003 11.522136688232422 24 85 147
16.974145889282227 -2.669750452041626 11.51230525970459 234 254 255
17.02014923095703 -1.9543101787567139 11.71119213104248 255 255 240
17.01703643798828 -1.8794770240783691 11.748274803161621 255 255 242
17.026941299438477 -1.978316307067871 11.708389282226562 73 38 12
17.027292251586914 -1.9997564554214478 11.705340385437012 54 17 3
16.99444580078125 -2.7179508209228516 11.509305953979492 10 101 176
17.04711151123047 -1.9507828950881958 11.723062515258789 255 255 231
17.082223892211914 -1.4203399419784546 11.87369155883789 27 47 72
17.092519760131836 -1.39144766330719 11.87487506866455 207 224 237
17.009723663330078 -2.5961740016937256 11.551422119140625 19 103 169
17.026592254638672 -2.6667368412017822 11.526427268981934 228 253 249
17.101776123046875 -1.7361315488815308 11.774359703063965 25 11 12
17.101776123046875 -1.7361315488815308 11.774359703063965 25 11 12
17.099727630615234 -1.8557603359222412 11.73709774017334 71 45 8
17.102893829345703 -1.6397929191589355 11.81354808807373 12 40 71
17.08841896057129 -1.8871527910232544 11.742778778076172 255 255 241
17.089923858642578 -1.8889307975769043 11.740096092224121 255 255 241
17.089923858642578 -1.8889307975769043 11.740096092224121 255 255 241
17.018606185913086 -2.9435315132141113 11.450535774230957 235 254 251
16.929719924926758 -2.590451240539551 11.68768310546875 10 93 148
17.0971736907959 -1.9522608518600464 11.727668762207031 255 255 244
17.11539649963379 -1.7381303310394287 11.783912658691406 166 195 234
16.134498596191406 -3.3580710887908936 12.33193588256836 117 125 124
17.06169891357422 -2.5665853023529053 11.553118705749512 234 254 249
17.0993709564209 -2.014350652694702 11.705495834350586 255 255 244
16.713518142700195 -3.445469379425049 11.64069938659668 39 39 39
17.064340591430664 -2.6867551803588867 11.514273643493652 224 249 251
17.064340591430664 -2.6867551803588867 11.514273643493652 224 249 251
17.131999969482422 -1.6733711957931519 11.798643112182617 25 39 68
17.06422233581543 -2.930840015411377 11.433517456054688 228 252 252
17.151105880737305 -1.606610655784607 11.807623863220215 28 54 84
17.121625900268555 -1.9254908561706543 11.728522300720215 132 76 27
17.121625900268555 -1.9254908561706543 11.728522300720215 132 76 27
17.07490348815918 -2.9774675369262695 11.40863037109375 9 87 153
17.137168884277344 -1.6454027891159058 11.813652038574219 122 171 209
17.137168884277344 -1.6454027891159058 11.813652038574219 122 171 209
17.656408309936523 -2.8323569297790527 10.802282333374023 0 79 134
17.131532669067383 -1.8968608379364014 11.741395950317383 251 247 236
17.179340362548828 -1.396056890487671 11.868306159973145 28 52 80
17.149213790893555 -1.8870269060134888 11.737164497375488 172 178 167
17.10703468322754 -2.5505340099334717 11.55418586730957 233 252 255
17.14405632019043 -1.7231518030166626 11.808993339538574 102 162 214
17.103559494018555 -2.697861909866333 11.517244338989258 29 95 154
17.12892723083496 -2.0018386840820312 11.736506462097168 255 255 248
17.203950881958008 -1.4024969339370728 11.87053108215332 232 252 255
17.164859771728516 -1.8980437517166138 11.738561630249023 255 255 245
17.173032760620117 -1.8693300485610962 11.739611625671387 255 255 241
17.22209358215332 -1.3975627422332764 11.865530967712402 16 29 55
17.22209358215332 -1.3975627422332764 11.865530967712402 16 29 55
17.183311462402344 -1.8901361227035522 11.733572959899902 49 21 14
17.151655197143555 -2.5758049488067627 11.52950668334961 230 252 255
17.18170166015625 -1.97623610496521 11.711618423461914 76 45 6
17.13189125061035 -0.9304818511009216 12.149484634399414 72 61 47
17.201316833496094 -1.970327615737915 11.703195571899414 255 255 243
17.177692413330078 -1.6630388498306274 11.843209266662598 16 34 57
17.191537857055664 -1.9066221714019775 11.739672660827637 255 255 238
17.21150016784668 -1.727973461151123 11.783967971801758 103 164 220
17.243650436401367 -1.410550594329834 11.872486114501953 226 242 255
17.243650436401367 -1.410550594329834 11.872486114501953 226 242 255
17.20438003540039 -1.886346697807312 11.748793601989746 228 226 226
17.246505737304688 -1.450839877128601 11.86521053314209 227 250 255
17.246505737304688 -1.450839877128601 11.86521053314209 227 250 255
15.646129608154297 -3.2383954524993896 13.099897384643555 103 111 111
17.27250099182129 -2.3034346103668213 11.538286209106445 3 52 90
17.26133918762207 -1.38997220993042 11.884028434753418 0 6 21
17.22848892211914 -1.8746315240859985 11.749344825744629 255 255 229
17.22848892211914 -1.8746315240859985 11.749344825744629 255 255 229
17.17080307006836 -2.8236591815948486 11.476139068603516 215 243 255
17.22709083557129 -1.9637107849121094 11.724539756774902 255 255 237
17.22709083557129 -1.9637107849121094 11.724539756774902 255 255 237
17.221742630004883 -2.0224523544311523 11.712750434875488 255 255 247
17.24578094482422 -1.7348346710205078 11.790143966674805 106 153 209
17.224567413330078 -1.9918221235275269 11.725473403930664 253 255 255
17.190311431884766 -2.3816347122192383 11.626792907714844 23 83 135
17.274316787719727 -1.407744288444519 11.88315486907959 223 241 255
