ply
format ascii 1.0
element vertex 706
property float x
property float y
property float z
property uchar red
property uchar green
property uchar blue
end_header
9.911540031433105 -0.7866531610488892 14.850622177124023 154 198 235
9.929044723510742 -0.8938646912574768 14.803882598876953 206 235 249
9.894641876220703 -1.0624161958694458 14.824069023132324 213 232 239
9.909910202026367 -1.1809757947921753 14.78525447845459 208 239 254
9.924565315246582 -0.908059298992157 14.857255935668945 168 197 212
9.957152366638184 -0.8315078020095825 14.79004192352295 80 122 165
9.969152450561523 -0.27753621339797974 14.955954551696777 8 88 151
9.94734001159668 0.6780496835708618 15.175304412841797 198 165 145
9.93132495880127 -1.191528081893921 14.815930366516113 213 244 253
9.958619117736816 -1.126443862915039 14.823787689208984 72 123 179
9.947345733642578 0.6780492067337036 15.175296783447266 198 165 145
9.947345733642578 0.6780492067337036 15.175296783447266 198 165 145
9.950759887695312 -1.0082358121871948 14.848670959472656 12 90 157
9.962265014648438 -0.7995302081108093 14.884095191955566 151 193 222
9.962265014648438 -0.7995302081108093 14.884095191955566 151 193 222
9.958622932434082 -1.1264437437057495 14.823781967163086 72 123 179
9.912708282470703 -0.5831475853919983 14.9491548538208 18 88 155
9.96993350982666 -0.924414873123169 14.890763282775879 180 219 241
9.989400863647461 0.636150598526001 15.234668731689453 36 2 0
9.989400863647461 0.636150598526001 15.234668731689453 36 2 0
10.006339073181152 0.5654226541519165 15.198792457580566 68 48 37
10.006339073181152 0.5654226541519165 15.198792457580566 68 48 37
10.018439292907715 0.5348358154296875 15.206971168518066 255 255 244
9.944045066833496 -0.9941802024841309 14.923474311828613 115 163 215
9.996711730957031 -0.8741025328636169 14.910045623779297 101 152 185
9.996711730957031 -0.8741025328636169 14.910045623779297 101 152 185
9.994081497192383 -0.5506992936134338 14.993895530700684 198 224 230
9.994081497192383 -0.5506992936134338 14.993895530700684 198 224 230
10.000509262084961 -1.1860662698745728 14.833386421203613 7 93 169
9.999549865722656 -1.304295301437378 14.835396766662598 9 94 172
9.996726036071777 -0.8741027116775513 14.910027503967285 101 152 185
10.03412914276123 0.44831565022468567 15.231332778930664 110 59 3
10.033404350280762 -1.053553581237793 14.900558471679688 19 81 145
10.055426597595215 0.5780759453773499 15.26298999786377 123 60 2
10.014182090759277 -1.1915923357009888 14.885711669921875 81 148 205
10.072443962097168 0.5207808017730713 15.238302230834961 255 255 238
10.062769889831543 -0.8956071734428406 14.92085075378418 39 89 142
10.047900199890137 -0.9922966957092285 14.932008743286133 200 226 232
10.067724227905273 -1.1918176412582397 14.895525932312012 16 90 156
10.06946086883545 -0.9212543368339539 14.959831237792969 45 85 143
10.054875373840332 -1.23142409324646 14.91145133972168 91 165 229
10.054875373840332 -1.23142409324646 14.91145133972168 91 165 229
10.099020004272461 0.5261257886886597 15.282881736755371 237 253 255
10.099020004272461 0.5261257886886597 15.282881736755371 237 253 255
10.08414077758789 -0.8598082661628723 14.998278617858887 51 92 137
10.078779220581055 -1.4280672073364258 14.873700141906738 41 88 140
10.09369945526123 -1.1887842416763306 14.924856185913086 7 94 160
10.09369945526123 -1.1887842416763306 14.924856185913086 7 94 160
10.085018157958984 -1.9814958572387695 14.752569198608398 191 217 224
10.097643852233887 -0.0076132179237902164 15.162885665893555 98 150 191
10.17917537689209 0.4922405779361725 15.25874137878418 155 117 75
10.17917537689209 0.4922405779361725 15.25874137878418 155 117 75
10.17917537689209 0.4922405779361725 15.25874137878418 155 117 75
10.145231246948242 -0.8880017995834351 14.955927848815918 41 79 137
10.120141983032227 -1.0222216844558716 14.956060409545898 143 173 214
10.175642013549805 -0.5446570515632629 15.047505378723145 201 225 231
10.158600807189941 -2.112725019454956 14.695610046386719 192 212 223
10.145102500915527 -0.9735437035560608 14.996574401855469 157 212 255
10.12014102935791 -1.0222219228744507 14.956061363220215 143 173 214
10.139453887939453 -1.3667067289352417 14.90980339050293 148 194 218
10.17652702331543 -0.9979217052459717 14.960833549499512 15 76 126
10.17652702331543 -0.9979217052459717 14.960833549499512 15 76 126
10.150474548339844 -1.0930289030075073 14.981098175048828 52 95 146
10.156570434570312 -0.11361031979322433 15.23462200164795 201 223 228
10.162981033325195 -1.0212550163269043 15.004432678222656 159 210 253
10.162981033325195 -1.0212550163269043 15.004432678222656 159 210 253
10.195789337158203 -2.1184074878692627 14.765416145324707 32 38 49
10.186100959777832 -2.120465040206909 14.780352592468262 32 38 49
10.204485893249512 -1.0499132871627808 14.95334529876709 47 97 155
10.1130952835083 -2.2004528045654297 14.802637100219727 158 179 187
10.189128875732422 -1.1512765884399414 14.984736442565918 133 178 216
10.178471565246582 -2.2331132888793945 14.738285064697266 193 215 226
10.163140296936035 -1.989836573600769 14.838024139404297 167 189 200
10.163140296936035 -1.989836573600769 14.838024139404297 167 189 200
10.256877899169922 -1.1700563430786133 14.9879150390625 178 218 243
10.262154579162598 -0.5179351568222046 15.16392707824707 9 90 157
10.221644401550293 -2.0204644203186035 14.864968299865723 59 72 86
10.288671493530273 -0.6231417655944824 15.188081741333008 194 223 227
10.353073120117188 -0.5665241479873657 15.220113754272461 60 116 171
10.353677749633789 -0.692023754119873 15.218539237976074 36 90 151
10.353666305541992 -0.6920222640037537 15.218557357788086 36 90 151
10.424832344055176 -0.6826425194740295 15.20340347290039 197 219 224
10.406262397766113 -2.243129014968872 14.904474258422852 192 218 225
10.48037052154541 -0.6528555750846863 15.290424346923828 193 216 224
10.498000144958496 -0.43840980529785156 15.361709594726562 186 214 221
10.41431999206543 -2.0701050758361816 15.074142456054688 135 161 168
10.702163696289062 -2.225290298461914 14.579257011413574 112 134 145
10.488587379455566 -2.2085342407226562 15.059073448181152 142 155 169
10.472424507141113 -2.314556360244751 14.998562812805176 185 207 218
10.488588333129883 -2.2085342407226562 15.059075355529785 142 155 169
10.566876411437988 -0.5832085013389587 15.397342681884766 12 85 143
10.566876411437988 -0.5832085013389587 15.397342681884766 12 85 143
10.488588333129883 -2.208533525466919 15.059075355529785 142 155 169
10.578750610351562 -0.3331712782382965 15.473738670349121 18 92 146
10.578750610351562 -0.3331712782382965 15.473738670349121 18 92 146
10.488587379455566 -2.208533525466919 15.059075355529785 142 155 169
10.488587379455566 -2.208533525466919 15.059075355529785 142 155 169
10.58540153503418 -0.4674443304538727 15.440320014953613 183 211 218
10.454193115234375 -2.2608296871185303 15.232331275939941 114 133 141
10.650856971740723 -0.7938963174819946 15.496794700622559 74 113 152
10.603689193725586 -2.124652862548828 15.196227073669434 180 205 215
10.703998565673828 -0.7611110210418701 15.5457181930542 166 196 221
10.714734077453613 -0.7791083455085754 15.5430269241333 145 176 197
10.714734077453613 -0.7791083455085754 15.5430269241333 145 176 197
12.154008865356445 -0.40079909563064575 13.233073234558105 87 143 178
9.040000915527344 0.219488725066185 9.653766632080078 21 11 1
11.338860511779785 1.3793216943740845 13.39362621307373 246 247 237
11.281607627868652 1.3258336782455444 13.414685249328613 203 167 127
11.399721145629883 1.3876590728759766 13.377150535583496 95 52 25
11.780191421508789 0.30949607491493225 12.821014404296875 19 100 168
11.710886001586914 1.3483695983886719 13.307001113891602 73 38 12
11.56698989868164 2.2906272411346436 13.768823623657227 27 47 72
11.579792022705078 2.337404727935791 13.776368141174316 207 224 237
11.919448852539062 0.3497444987297058 12.870354652404785 19 103 169
11.680256843566895 0.3735993802547455 13.13817310333252 10 93 148
11.891218185424805 1.3486356735229492 13.299960136413574 75 53 48
12.1614408493042 -0.17665846645832062 12.579305648803711 228 252 252
11.823681831359863 1.9353628158569336 13.570367813110352 69 103 149
11.86011791229248 1.4269211292266846 13.351486206054688 132 76 27
11.86011791229248 1.4269211292266846 13.351486206054688 132 76 27
11.765229225158691 1.8973615169525146 13.587240219116211 122 171 209
11.765229225158691 1.8973615169525146 13.587240219116211 122 171 209
11.736376762390137 2.367245674133301 13.799444198608398 182 205 221
11.896112442016602 1.4877804517745972 13.375653266906738 172 178 167
12.08378791809082 0.41527625918388367 12.878874778747559 233 252 255
11.736370086669922 2.3672497272491455 13.799452781677246 182 205 221
11.925589561462402 1.4757342338562012 13.40058422088623 70 39 30
11.959906578063965 1.5166436433792114 13.394186973571777 168 138 119
11.991363525390625 1.3371002674102783 13.303877830505371 76 45 6
11.822829246520996 1.868592381477356 13.64013385772705 16 34 57
11.974499702453613 1.452699899673462 13.374921798706055 255 255 238
11.941144943237305 1.7481932640075684 13.503198623657227 103 164 220
11.865516662597656 2.285562038421631 13.757756233215332 226 242 255
11.865516662597656 2.285562038421631 13.757756233215332 226 242 255
11.959822654724121 1.5166829824447632 13.394270896911621 168 138 119
11.885153770446777 2.2165470123291016 13.732746124267578 227 250 255
11.885153770446777 2.2165470123291016 13.732746124267578 227 250 255
11.898344993591309 2.3127517700195312 13.771552085876465 0 6 21
12.065561294555664 1.2416908740997314 13.282487869262695 177 141 105
12.07022476196289 1.3077789545059204 13.29610538482666 255 252 245
12.00733470916748 2.280879020690918 13.71044921875 97 117 134
12.00733470916748 2.280879020690918 13.71044921875 97 117 134
11.943711280822754 1.977047324180603 13.64656925201416 77 115 163
11.94398307800293 1.97689688205719 13.646231651306152 77 115 163
12.165836334228516 1.2906736135482788 13.316436767578125 249 252 230
11.975740432739258 2.3289296627044678 13.810144424438477 160 177 196
12.161344528198242 1.3388020992279053 13.334446907043457 255 255 238
12.161344528198242 1.3388020992279053 13.334446907043457 255 255 238
12.140482902526855 1.4501519203186035 13.393104553222656 141 138 134
12.140482902526855 1.4501519203186035 13.393104553222656 141 138 134
12.447297096252441 -0.19583596289157867 12.601134300231934 224 246 252
12.447297096252441 -0.19583596289157867 12.601134300231934 224 246 252
12.059247970581055 2.2838830947875977 13.784807205200195 0 6 23
12.223405838012695 1.697584867477417 13.480706214904785 0 17 58
12.223405838012695 1.697584867477417 13.480706214904785 0 17 58
12.20959186553955 1.355010986328125 13.364779472351074 119 74 0
12.188429832458496 1.8971531391143799 13.615290641784668 81 127 185
12.223405838012695 1.697584867477417 13.480706214904785 0 17 58
12.299905776977539 1.271984577178955 13.33096981048584 244 255 255
12.133315086364746 2.2552459239959717 13.810742378234863 206 225 240
12.133315086364746 2.2552459239959717 13.810742378234863 206 225 240
12.328437805175781 1.251381278038025 13.323851585388184 131 128 130
12.197779655456543 2.26127552986145 13.804450988769531 7 23 39
12.505449295043945 0.32649627327919006 12.886624336242676 43 93 145
12.319601058959961 1.749869704246521 13.548652648925781 26 35 44
12.505414009094238 0.3265031576156616 12.886658668518066 43 93 145
12.505414009094238 0.3265031576156616 12.886658668518066 43 93 145
12.535675048828125 0.5026006698608398 12.973564147949219 33 103 157
12.54571533203125 0.3583374321460724 12.937766075134277 223 243 248
12.401103019714355 1.3586112260818481 13.407832145690918 130 84 26
12.255356788635254 2.2106895446777344 13.851017951965332 239 252 255
12.2926664352417 2.18471622467041 13.828108787536621 213 232 245
12.644369125366211 0.37066829204559326 12.940560340881348 153 190 212
12.30276107788086 2.226733922958374 13.856316566467285 234 248 255
12.30276107788086 2.226733922958374 13.856316566467285 234 248 255
12.460293769836426 1.2474335432052612 13.379810333251953 114 62 21
12.684422492980957 -0.03571724146604538 12.768614768981934 92 142 188
12.684422492980957 -0.03571724146604538 12.768614768981934 92 142 188
12.32249641418457 2.1912620067596436 13.911216735839844 140 159 172
12.49897575378418 1.3316866159439087 13.423537254333496 120 73 22
12.682831764221191 -0.7393932342529297 12.553338050842285 51 114 172
12.713191032409668 -0.021553833037614822 12.774965286254883 204 246 255
12.861225128173828 -0.7211248874664307 12.408177375793457 32 89 150
12.487144470214844 1.4643748998641968 13.49594783782959 237 213 185
12.623700141906738 0.7035046815872192 13.132407188415527 212 233 241
12.623700141906738 0.7035046815872192 13.132407188415527 212 233 241
12.76134204864502 0.019827451556921005 12.786622047424316 175 217 255
12.500578880310059 1.2853152751922607 13.430482864379883 106 62 31
12.500578880310059 1.2853152751922607 13.430482864379883 106 62 31
12.648857116699219 0.38249558210372925 13.0269775390625 213 235 241
12.819950103759766 -0.2912743389606476 12.658782958984375 190 236 255
12.570501327514648 1.2557525634765625 13.451202392578125 239 244 243
12.602958679199219 1.2666393518447876 13.443603515625 50 16 0
12.737858772277832 0.35807347297668457 12.996641159057617 133 161 185
12.841185569763184 -0.0732300877571106 12.813833236694336 23 97 169
12.841185569763184 -0.0732300877571106 12.813833236694336 23 97 169
12.838155746459961 0.0988408699631691 12.89783763885498 194 243 255
12.888483047485352 0.016375171020627022 12.830290794372559 12 83 151
12.815878868103027 0.3148457109928131 13.024532318115234 193 224 227
12.93928050994873 -0.4315011203289032 12.68346881866455 194 235 255
12.936654090881348 -0.29923567175865173 12.715888977050781 10 50 103
12.88416576385498 -0.00496645038947463 12.88007640838623 223 247 245
12.88416576385498 -0.00496645038947463 12.88007640838623 223 247 245
12.900834083557129 0.019741229712963104 12.874532699584961 201 246 255
12.900834083557129 0.019741229712963104 12.874532699584961 201 246 255
12.912614822387695 0.2569103240966797 12.989226341247559 6 82 148
12.88978099822998 0.14782485365867615 12.913288116455078 186 233 255
12.988340377807617 -0.4029964804649353 12.655036926269531 154 188 231
12.919565200805664 0.034957848489284515 12.882259368896484 35 80 147
12.939860343933105 -0.17159169912338257 12.790658950805664 236 253 249
12.931718826293945 -0.13175587356090546 12.794881820678711 72 135 186
12.912622451782227 0.25690779089927673 12.989218711853027 6 82 148
12.912622451782227 0.25690779089927673 12.989218711853027 6 82 148
12.93608283996582 0.02654065378010273 12.89889144897461 205 244 253
12.939435005187988 -0.042377930134534836 12.897253036499023 19 73 133
12.966650009155273 -0.15045493841171265 12.810697555541992 54 99 160
13.009814262390137 -0.41868293285369873 12.676764488220215 15 98 166
13.012660026550293 -0.28814077377319336 12.731887817382812 203 222 237
13.001681327819824 -0.3440982401371002 12.726924896240234 26 83 139
12.96750259399414 -0.09909188002347946 12.855788230895996 212 237 241
12.948100090026855 0.017850810661911964 12.923579216003418 157 185 196
13.001999855041504 -0.19621795415878296 12.775568008422852 69 103 132
13.04298210144043 -0.41771572828292847 12.687599182128906 116 161 198
13.026167869567871 -0.32654958963394165 12.73670482635498 208 236 237
13.026167869567871 -0.32654958963394165 12.73670482635498 208 236 237
12.912922859191895 0.3219793736934662 13.08016300201416 214 238 244
12.773923873901367 1.1453014612197876 13.524195671081543 248 255 255
12.934760093688965 0.33166179060935974 13.082568168640137 198 235 255
12.931344985961914 0.28970685601234436 13.074774742126465 192 218 225
12.931344985961914 0.28970685601234436 13.074774742126465 192 218 225
12.9800386428833 -0.05682791396975517 12.904011726379395 4 73 142
13.029448509216309 -0.153494730591774 12.840649604797363 57 113 168
13.019308090209961 -0.19591033458709717 12.826862335205078 231 253 255
13.050789833068848 -0.4521787166595459 12.736495018005371 187 231 255
12.996071815490723 0.304566353559494 13.126598358154297 163 200 214
13.076166152954102 -0.2797378897666931 12.827999114990234 9 95 165
13.042521476745605 0.023181233555078506 12.978922843933105 28 82 135
12.693449974060059 2.1929569244384766 14.162023544311523 0 0 20
12.693449974060059 2.1929569244384766 14.162023544311523 0 0 20
12.70028305053711 2.178267002105713 14.153526306152344 1 16 35
12.969733238220215 0.6284275650978088 13.329124450683594 199 216 229
13.10485553741455 -0.06527374684810638 12.978074073791504 70 101 146
13.102117538452148 -0.11200030893087387 12.938056945800781 15 91 163
12.758474349975586 2.1499621868133545 14.181778907775879 181 197 204
13.208441734313965 -0.689713716506958 12.642274856567383 39 112 174
13.208441734313965 -0.689713716506958 12.642274856567383 39 112 174
13.134479522705078 -0.07311739772558212 12.997146606445312 148 205 244
13.134479522705078 -0.07311739772558212 12.997146606445312 148 205 244
13.072210311889648 0.28677695989608765 13.204397201538086 183 216 231
13.176222801208496 -0.1651734709739685 12.98095703125 186 223 255
13.130224227905273 0.2404039055109024 13.249611854553223 190 216 222
13.313387870788574 -0.8563635945320129 12.696684837341309 0 0 10
13.322198867797852 -0.7687692046165466 12.71081256866455 148 169 177
13.322198867797852 -0.7687692046165466 12.71081256866455 148 169 177
13.314643859863281 -0.8565773963928223 12.695284843444824 0 0 10
13.316418647766113 -0.8568789958953857 12.693305969238281 0 0 10
13.177879333496094 0.19271467626094818 13.266473770141602 18 74 139
13.177882194519043 0.1927139014005661 13.266469955444336 18 74 139
12.877613067626953 2.0827226638793945 14.341657638549805 105 125 143
13.172647476196289 0.25358453392982483 13.312572479248047 7 80 148
13.360010147094727 -0.7920281291007996 12.734126091003418 25 37 49
13.360010147094727 -0.7920281291007996 12.734126091003418 25 37 49
12.877613067626953 2.0827226638793945 14.341657638549805 105 125 143
13.212202072143555 0.1912047415971756 13.281902313232422 194 218 230
13.212202072143555 0.1912047415971756 13.281902313232422 194 218 230
13.377610206604004 -0.7983288764953613 12.74437141418457 214 222 235
13.39251708984375 -0.8354848623275757 12.738920211791992 249 246 255
12.915468215942383 2.211153745651245 14.471561431884766 141 155 177
13.419891357421875 -0.8288628458976746 12.74158763885498 0 0 10
13.174006462097168 0.567504346370697 13.528130531311035 189 209 220
13.43742847442627 -0.960141122341156 12.689901351928711 172 188 200
13.207682609558105 0.3794695734977722 13.452509880065918 185 211 217
12.858055114746094 0.5520418286323547 13.948857307434082 133 162 193
12.858055114746094 0.5520418286323547 13.948857307434082 133 162 193
12.915468215942383 2.211153745651245 14.471561431884766 141 155 177
12.915468215942383 2.211153745651245 14.471561431884766 141 155 177
13.454558372497559 -0.9270080924034119 12.75141716003418 194 220 227
12.921957969665527 2.1470110416412354 14.509593963623047 1 13 31
13.458549499511719 -0.8789478540420532 12.790209770202637 221 242 250
12.949061393737793 2.088465690612793 14.527649879455566 169 194 204
13.223573684692383 0.5111084580421448 13.59990119934082 29 80 123
13.269950866699219 0.2766532003879547 13.463546752929688 9 78 141
13.269950866699219 0.2766532003879547 13.463546752929688 9 78 141
13.45852279663086 -0.8974694013595581 12.813521385192871 52 71 79
13.463484764099121 -0.8714397549629211 12.860283851623535 211 230 238
13.277091026306152 0.31461530923843384 13.541133880615234 64 124 166
13.470585823059082 -0.8208560943603516 12.906773567199707 161 177 189
13.470585823059082 -0.8208560943603516 12.906773567199707 161 177 189
13.482203483581543 -0.9108116030693054 12.87894058227539 0 4 17
13.310580253601074 0.17867471277713776 13.499001502990723 181 203 214
13.256524085998535 0.590487539768219 13.7506685256958 54 101 139
13.523359298706055 -0.9166207909584045 12.905891418457031 17 26 39
13.340496063232422 0.12941056489944458 13.539119720458984 0 36 74
13.518498420715332 -0.9145206212997437 12.912931442260742 17 26 39
13.518499374389648 -0.9145212769508362 12.912928581237793 17 26 39
13.506322860717773 -0.8472798466682434 12.948050498962402 70 82 92
13.323738098144531 0.12394572049379349 13.687737464904785 37 86 132
13.571243286132812 -0.8188852667808533 13.126503944396973 30 82 118
13.571243286132812 -0.8188852667808533 13.126503944396973 30 82 118
13.29460620880127 -1.0834429264068604 14.13959789276123 7 33 57
13.182369232177734 1.1617079973220825 15.26543140411377 144 151 154
13.411291122436523 1.1877727508544922 15.039767265319824 2 5 10
13.180878639221191 1.1395083665847778 15.325505256652832 140 147 150
13.24751091003418 0.7633979320526123 15.172285079956055 89 94 97
13.311985969543457 0.5390114188194275 15.045116424560547 0 1 4
13.288993835449219 0.10522924363613129 15.070276260375977 24 23 25
13.891536712646484 -0.23575229942798615 10.159040451049805 219 240 241
14.002289772033691 -0.36045676469802856 10.104486465454102 141 167 184
14.001335144042969 -0.5449700951576233 10.054976463317871 40 101 141
14.032400131225586 -0.4358602464199066 10.092584609985352 209 235 235
14.055919647216797 -0.4926782250404358 10.087699890136719 5 85 138
14.055919647216797 -0.4926782250404358 10.087699890136719 5 85 138
14.09853744506836 -0.5559772253036499 10.05696964263916 222 241 249
14.162426948547363 0.08485433459281921 10.220855712890625 167 139 104
14.168368339538574 0.13013236224651337 10.240931510925293 222 217 214
14.162237167358398 -0.6273357272148132 10.036148071289062 182 217 221
14.162237167358398 -0.6273357272148132 10.036148071289062 182 217 221
14.184298515319824 -0.5971608757972717 10.05180835723877 225 239 238
14.190235137939453 -0.6441428661346436 10.036635398864746 0 83 149
14.223146438598633 0.09531564265489578 10.214497566223145 89 65 53
14.22314739227295 0.09531524777412415 10.214496612548828 89 65 53
14.22314739227295 0.09531524777412415 10.214496612548828 89 65 53
14.271125793457031 -0.5415024757385254 10.079087257385254 220 240 245
14.192553520202637 0.15444402396678925 10.367874145507812 255 255 249
14.192553520202637 0.15444402396678925 10.367874145507812 255 255 249
14.314507484436035 -0.5234503746032715 10.08505916595459 240 255 251
14.316184043884277 -0.5496076345443726 10.083045959472656 6 73 136
14.356725692749023 -0.45514553785324097 10.111061096191406 25 104 167
14.373307228088379 -0.4347498416900635 10.136119842529297 91 144 194
14.431674003601074 -0.4003986418247223 10.15389347076416 221 241 246
14.448505401611328 -0.5032497048377991 10.13620662689209 56 122 175
14.42035961151123 0.2493782490491867 10.384729385375977 74 45 31
14.482290267944336 0.4318664073944092 10.381937980651855 10 27 54
14.544438362121582 0.6903374791145325 10.461572647094727 235 251 255
14.55175495147705 0.20652687549591064 10.360564231872559 120 86 43
14.55175495147705 0.20652687549591064 10.360564231872559 120 86 43
14.519560813903809 -0.5045343041419983 10.169540405273438 46 108 162
14.535614013671875 -1.0816395282745361 10.027709007263184 66 124 176
14.551755905151367 0.20652665197849274 10.360565185546875 120 86 43
14.531609535217285 -0.43450143933296204 10.197257995605469 31 94 145
14.583532333374023 -0.39742597937583923 10.220403671264648 212 234 239
14.606375694274902 0.16932763159275055 10.357171058654785 122 71 9
14.638243675231934 -0.433707594871521 10.245696067810059 22 90 137
14.622245788574219 0.09766560047864914 10.368199348449707 191 163 132
14.622245788574219 0.09766560047864914 10.368199348449707 191 163 132
14.638925552368164 0.12463530153036118 10.386749267578125 189 196 199
14.628515243530273 -0.3912366032600403 10.25333309173584 31 96 157
14.632179260253906 -1.1008692979812622 10.054283142089844 46 101 146
14.638248443603516 -0.43371039628982544 10.245688438415527 22 90 137
14.638262748718262 -0.433719664812088 10.24566650390625 22 90 137
14.638262748718262 -0.433719664812088 10.24566650390625 22 90 137
14.744333267211914 0.6785751581192017 10.495145797729492 63 80 93
14.663625717163086 -0.41234976053237915 10.281831741333008 215 233 240
14.709592819213867 -0.3974423408508301 10.30931568145752 145 181 205
14.734243392944336 0.6546200513839722 10.555249214172363 233 250 255
14.720507621765137 0.12401070445775986 10.428398132324219 108 52 3
14.748811721801758 0.6771143674850464 10.56171703338623 180 194 206
14.728447914123535 0.23765215277671814 10.459739685058594 255 255 235
14.714150428771973 -0.6470639705657959 10.25055980682373 198 248 255
14.772994995117188 0.6464950442314148 10.580536842346191 87 106 121
14.756254196166992 0.2089703232049942 10.479097366333008 255 255 242
14.740004539489746 -0.6179697513580322 10.267163276672363 164 209 252
14.739862442016602 -0.39800822734832764 10.331550598144531 198 224 230
14.746586799621582 -0.7935310006141663 10.238459587097168 76 123 167
14.746586799621582 -0.7935310006141663 10.238459587097168 76 123 167
14.748576164245605 -0.5938101410865784 10.285955429077148 122 157 197
14.741070747375488 -0.8177692294120789 10.229147911071777 165 210 248
14.788261413574219 0.1315668672323227 10.479864120483398 238 242 237
14.790457725524902 0.11522522568702698 10.473956108093262 12 14 22
14.778265953063965 -0.6056822538375854 10.288492202758789 156 199 250
14.774011611938477 -0.4063357710838318 10.3445405960083 103 134 159
14.81907844543457 0.14247475564479828 10.506373405456543 115 81 57
14.81907844543457 0.14247475564479828 10.506373405456543 115 81 57
14.784420013427734 -0.7359972596168518 10.274103164672852 200 247 255
14.784420013427734 -0.7359972596168518 10.274103164672852 200 247 255
14.790587425231934 -0.5499403476715088 10.322436332702637 10 63 114
14.801932334899902 0.05978459119796753 10.501151084899902 104 58 0
14.78613567352295 -0.8640682697296143 10.248014450073242 0 58 106
14.78613567352295 -0.8640682697296143 10.248014450073242 0 58 106
14.787154197692871 -0.7901433706283569 10.270902633666992 9 93 165
14.819077491760254 0.14247556030750275 10.50637435913086 115 81 57
14.819077491760254 0.14247556030750275 10.50637435913086 115 81 57
14.837203025817871 0.08993708342313766 10.504508018493652 255 251 248
14.821492195129395 -0.433379590511322 10.369528770446777 189 217 218
14.805069923400879 -0.7836765050888062 10.289609909057617 0 60 114
14.833646774291992 0.7509426474571228 10.728214263916016 13 31 48
14.846294403076172 0.12284808605909348 10.52902889251709 11 1 0
14.846294403076172 0.12284808605909348 10.52902889251709 11 1 0
14.812499046325684 -0.6308674216270447 10.34469985961914 204 235 226
14.812499046325684 -0.6308674216270447 10.34469985961914 204 235 226
14.820618629455566 -0.6121281385421753 10.344953536987305 192 235 255
14.850943565368652 -0.4593622088432312 10.393453598022461 8 76 143
14.81737995147705 -0.8833647966384888 10.277078628540039 157 201 242
14.843915939331055 -0.5786879062652588 10.37009334564209 57 106 144
14.8627347946167 0.07294832915067673 10.517640113830566 255 255 240
14.821212768554688 -0.7095277309417725 10.317728996276855 99 140 189
14.843378067016602 -0.3092775344848633 10.434139251708984 1 77 136
14.846254348754883 -0.6537710428237915 10.361136436462402 18 68 134
14.84809684753418 -0.6095483899116516 10.357257843017578 206 238 255
14.84899616241455 -0.7229001522064209 10.323325157165527 53 95 154
14.83212947845459 -0.894146203994751 10.292413711547852 16 84 157
14.84660530090332 -0.8306677937507629 10.299242973327637 199 228 237
14.817480087280273 -0.7582713961601257 10.370903015136719 156 192 222
14.880098342895508 0.09640705585479736 10.5438871383667 98 49 9
14.880098342895508 0.09640705585479736 10.5438871383667 98 49 9
14.845746994018555 -0.84823077917099 10.301703453063965 21 76 137
14.841919898986816 -0.8063530325889587 10.320117950439453 196 213 226
14.843914985656738 -0.5786879062652588 10.370095252990723 57 106 144
14.852025985717773 -0.6883844137191772 10.350714683532715 208 230 236
14.852025985717773 -0.6883844137191772 10.350714683532715 208 230 236
14.85867977142334 -0.6149947643280029 10.370442390441895 137 167 184
14.846253395080566 -0.6537709832191467 10.361137390136719 18 68 134
14.857324600219727 -0.83550626039505 10.315679550170898 209 236 255
14.857324600219727 -0.83550626039505 10.315679550170898 209 236 255
14.873374938964844 -0.42350703477859497 10.424715995788574 212 231 234
14.90170669555664 0.06988762319087982 10.553329467773438 248 255 251
14.86964225769043 -0.6613509654998779 10.371317863464355 0 68 135
14.88103199005127 -0.4430612027645111 10.427469253540039 199 221 232
14.88103199005127 -0.4430612027645111 10.427469253540039 199 221 232
14.877969741821289 -0.7200038433074951 10.362313270568848 108 163 202
14.878300666809082 -0.7515941262245178 10.343113899230957 213 239 245
14.922992706298828 0.05576673895120621 10.561881065368652 255 255 226
14.922992706298828 0.05576673895120621 10.561881065368652 255 255 226
14.917055130004883 -0.43053382635116577 10.472911834716797 171 201 218
14.917055130004883 -0.43053382635116577 10.472911834716797 171 201 218
14.913432121276855 -0.1847822219133377 10.510520935058594 47 102 147
14.913429260253906 -0.1847805678844452 10.510525703430176 47 102 147
14.915505409240723 -0.8097946047782898 10.346504211425781 6 88 159
14.911066055297852 -0.6833547949790955 10.390925407409668 8 56 108
14.912714004516602 -0.6071227192878723 10.421743392944336 38 80 125
14.93278694152832 -0.6055837869644165 10.421107292175293 153 200 251
14.93278694152832 -0.6055837869644165 10.421107292175293 153 200 251
14.927729606628418 -0.7231560945510864 10.406148910522461 84 134 170
14.992158889770508 0.6587269902229309 10.757894515991211 0 4 20
14.992158889770508 0.6587269902229309 10.757894515991211 0 4 20
14.952327728271484 -0.23479510843753815 10.535009384155273 196 215 222
14.992289543151855 0.6517779231071472 10.758903503417969 8 20 38
14.982772827148438 -0.6822693347930908 10.47035026550293 15 61 108
15.00808048248291 -0.4732741713523865 10.555259704589844 187 207 212
15.059284210205078 0.6563152074813843 10.842689514160156 207 224 237
15.059284210205078 0.6563152074813843 10.842689514160156 207 224 237
15.033652305603027 -0.4480895698070526 10.57144832611084 88 143 182
15.037023544311523 -0.504620373249054 10.571300506591797 17 76 132
15.011724472045898 -1.1648015975952148 10.393209457397461 207 236 243
15.042210578918457 -0.4676305651664734 10.589936256408691 7 77 137
15.049161911010742 -0.22118951380252838 10.641657829284668 19 89 142
15.049161911010742 -0.22118951380252838 10.641657829284668 19 89 142
15.085348129272461 -0.3913213908672333 10.655390739440918 181 202 210
15.042352676391602 -1.1487596035003662 10.462776184082031 67 85 92
15.120857238769531 -0.3362484276294708 10.705193519592285 10 70 129
15.120857238769531 -0.3362484276294708 10.705193519592285 10 70 129
15.114097595214844 -0.45300915837287903 10.681848526000977 0 72 130
15.114097595214844 -0.45300915837287903 10.681848526000977 0 72 130
15.136614799499512 -0.37949371337890625 10.720746040344238 68 110 155
15.159902572631836 -0.3388657867908478 10.771530151367188 40 92 133
15.152710914611816 -0.5502052903175354 10.746797561645508 27 66 105
15.165990829467773 -0.30830609798431396 10.789900779724121 4 60 101
14.488446235656738 -0.7173796892166138 9.560263633728027 171 195 217
14.488446235656738 -0.7173796892166138 9.560263633728027 171 195 217
14.497103691101074 -0.5499632954597473 9.635628700256348 223 239 245
14.546256065368652 -0.8928545117378235 9.496593475341797 220 239 246
14.54008960723877 -0.06404019147157669 9.732659339904785 105 57 15
14.595135688781738 -0.7065866589546204 9.547612190246582 113 159 190
14.578213691711426 -0.08130627125501633 9.729623794555664 234 237 241
14.578213691711426 -0.08130627125501633 9.729623794555664 234 237 241
14.57882308959961 -0.6719953417778015 9.560800552368164 86 131 165
14.615683555603027 -0.07389118522405624 9.73022747039795 106 57 31
14.66414737701416 -0.04593556374311447 9.745356559753418 255 255 237
14.66414737701416 -0.04593556374311447 9.745356559753418 255 255 237
14.664381980895996 0.0020520230755209923 9.755051612854004 178 136 99
14.677733421325684 -0.06971852481365204 9.733423233032227 91 49 12
14.682182312011719 0.054395485669374466 9.801297187805176 105 67 35
14.682182312011719 0.054395485669374466 9.801297187805176 105 67 35
14.687915802001953 0.38622143864631653 9.868403434753418 125 145 163
14.693845748901367 -0.608447253704071 9.599358558654785 19 99 162
14.693675994873047 0.4198758900165558 9.88859748840332 20 36 59
14.693675994873047 0.4198758900165558 9.88859748840332 20 36 59
14.715997695922852 -0.023780610412359238 9.752081871032715 120 71 9
14.7144193649292 -0.9324826002120972 9.491238594055176 87 151 206
14.73112678527832 0.1537659764289856 9.806233406066895 19 31 59
14.733711242675781 -0.6015966534614563 9.5846529006958 98 164 213
14.736224174499512 0.2052704244852066 9.82664680480957 126 143 164
14.736224174499512 0.2052704244852066 9.82664680480957 126 143 164
14.755718231201172 -0.6960803866386414 9.559579849243164 220 242 248
14.74817180633545 -0.10260370373725891 9.733484268188477 255 255 248
14.770959854125977 0.029416367411613464 9.777519226074219 255 253 240
14.770959854125977 0.029416367411613464 9.777519226074219 255 253 240
14.768622398376465 0.21624122560024261 9.826642036437988 82 131 175
14.768622398376465 0.21624122560024261 9.826642036437988 82 131 175
14.766542434692383 0.21276992559432983 9.831714630126953 125 171 212
14.77078914642334 -0.000786554825026542 9.768486022949219 255 255 242
14.781787872314453 0.24397987127304077 9.835497856140137 59 96 140
14.7709379196167 0.029446473345160484 9.777578353881836 255 253 240
14.765963554382324 0.15384367108345032 9.837625503540039 75 130 181
14.80109691619873 -1.1998659372329712 9.422374725341797 52 101 149
14.80109691619873 -1.1998659372329712 9.422374725341797 52 101 149
14.822249412536621 -0.10382720828056335 9.750560760498047 255 255 235
14.822249412536621 -0.10382720828056335 9.750560760498047 255 255 235
14.827116012573242 -0.05909832566976547 9.757856369018555 255 255 239
14.8347806930542 -0.08188626915216446 9.75893783569336 95 48 4
14.835598945617676 0.44437137246131897 9.909645080566406 8 22 40
14.838621139526367 0.4265330135822296 9.904915809631348 223 237 255
14.838621139526367 0.4265330135822296 9.904915809631348 223 237 255
14.85338306427002 -0.8612828254699707 9.537429809570312 13 100 166
14.85338306427002 -0.8612828254699707 9.537429809570312 13 100 166
14.84885025024414 0.022447217255830765 9.795615196228027 255 255 238
14.853801727294922 -0.43365907669067383 9.664944648742676 28 86 138
14.853801727294922 -0.43365907669067383 9.664944648742676 28 86 138
14.85779857635498 -0.12385015934705734 9.740100860595703 125 85 36
14.85779857635498 -0.12385015934705734 9.740100860595703 125 85 36
14.876344680786133 0.25794461369514465 9.86037540435791 92 132 180
14.896933555603027 -1.1878303289413452 9.45987319946289 89 148 193
14.895515441894531 0.43764716386795044 9.90738296508789 131 147 164
14.904131889343262 -0.08871918171644211 9.775243759155273 250 255 255
14.89499568939209 -0.710763156414032 9.596269607543945 209 235 242
14.904131889343262 -0.08871918171644211 9.775243759155273 250 255 255
14.904610633850098 -0.12051022797822952 9.764601707458496 255 247 218
14.904610633850098 -0.12051022797822952 9.764601707458496 255 247 218
14.915266036987305 -1.216963529586792 9.438800811767578 166 214 242
14.932619094848633 0.43481239676475525 9.93974494934082 19 31 49
14.968340873718262 0.3760712742805481 9.937049865722656 30 53 69
14.957956314086914 0.42065659165382385 9.946093559265137 0 5 25
14.978008270263672 0.12110807001590729 9.814845085144043 14 48 84
14.96911334991455 -0.09581751376390457 9.795565605163574 246 251 252
14.992423057556152 -0.6100729703903198 9.64897632598877 5 70 125
14.992423057556152 -0.6100729703903198 9.64897632598877 5 70 125
14.987988471984863 0.42598599195480347 9.948342323303223 29 46 65
14.987988471984863 0.42598599195480347 9.948342323303223 29 46 65
14.992423057556152 -0.6100728511810303 9.64897632598877 5 70 125
14.999104499816895 0.42980965971946716 9.964974403381348 21 44 59
14.992422103881836 -0.610072672367096 9.648977279663086 5 70 125
14.984512329101562 -0.6870093941688538 9.677901268005371 10 91 158
15.015708923339844 0.09709461033344269 9.869270324707031 25 28 42
15.023117065429688 0.15695038437843323 9.926495552062988 62 70 83
15.023117065429688 0.15695038437843323 9.926495552062988 62 70 83
15.035771369934082 -1.2173320055007935 9.480607032775879 52 98 129
15.040647506713867 0.3944559395313263 9.975963592529297 187 206 219
15.089165687561035 0.3757077753543854 9.993016242980957 103 118 134
15.101012229919434 -1.2380603551864624 9.477865219116211 135 186 229
15.076639175415039 0.02127646468579769 9.901079177856445 90 69 31
15.076639175415039 0.02127646468579769 9.901079177856445 90 69 31
15.10101318359375 -1.238060712814331 9.477864265441895 135 186 229
15.115056991577148 -1.212364673614502 9.514904022216797 65 125 184
15.233633041381836 -0.6620310544967651 9.687178611755371 8 76 129
15.254462242126465 -1.3614463806152344 9.538532257080078 18 61 94
15.385461807250977 -1.3052561283111572 9.6124849319458 0 9 19
15.38552188873291 -1.2825695276260376 9.665898323059082 195 222 226
15.40776538848877 -1.2847987413406372 9.687657356262207 238 238 252
15.407845497131348 -1.313798427581787 9.67772102355957 82 99 112
15.411112785339355 0.42997613549232483 10.287094116210938 9 22 36
15.419703483581543 -1.2716585397720337 9.71175479888916 0 0 7
15.417899131774902 -1.3574243783950806 9.681053161621094 122 143 151
15.41970157623291 -1.271658182144165 9.711758613586426 0 0 7
15.44288158416748 -1.2503279447555542 9.713390350341797 188 217 222
15.41928482055664 -1.3580989837646484 9.722037315368652 191 217 224
15.448978424072266 -1.312252402305603 9.716615676879883 234 246 255
15.461431503295898 -1.310019850730896 9.743268013000488 192 222 227
15.494647026062012 -1.2719277143478394 9.781620025634766 188 215 219
15.49678897857666 -1.361723780632019 9.786003112792969 170 199 206
12.001327514648438 0.42822933197021484 14.68289852142334 171 202 223
12.001324653625488 0.4282287359237671 14.682904243469238 171 202 223
12.001324653625488 0.4282287359237671 14.682904243469238 171 202 223
12.023839950561523 0.7512207627296448 14.817773818969727 220 239 246
12.040803909301758 1.7108831405639648 15.079052925109863 94 54 19
12.146389961242676 0.07253511250019073 14.49090576171875 214 234 245
12.07841968536377 1.7144845724105835 15.068268775939941 126 72 25
12.127761840820312 1.7388617992401123 15.072365760803223 255 253 250
12.128816604614258 1.6892592906951904 15.061891555786133 239 255 253
12.231053352355957 0.4354729652404785 14.609458923339844 123 170 202
12.231053352355957 0.4354729652404785 14.609458923339844 123 170 202
12.163894653320312 1.6722259521484375 15.03796672821045 202 207 208
12.163894653320312 1.6722259521484375 15.03796672821045 202 207 208
12.198053359985352 0.5074589252471924 14.640473365783691 42 102 144
12.198052406311035 0.5074605941772461 14.640474319458008 42 102 144
12.208592414855957 1.6509455442428589 15.023706436157227 255 255 248
12.208592414855957 1.6509455442428589 15.023706436157227 255 255 248
12.21845531463623 1.6903148889541626 15.032193183898926 72 32 14
12.217705726623535 1.733999252319336 15.047074317932129 255 255 237
12.285204887390137 1.6826210021972656 15.037521362304688 232 243 240
12.260476112365723 1.624699592590332 15.005614280700684 86 43 4
12.31191349029541 1.7085137367248535 15.045477867126465 62 32 15
12.31191349029541 1.7085137367248535 15.045477867126465 62 32 15
12.32964038848877 1.6772770881652832 15.032389640808105 255 254 229
12.253070831298828 2.710108518600464 15.392464637756348 190 212 230
12.347524642944336 1.7299251556396484 15.03284740447998 255 255 238
12.347524642944336 1.7299251556396484 15.03284740447998 255 255 238
12.33487606048584 1.8352835178375244 15.0825834274292 187 156 123
12.313459396362305 2.6837515830993652 15.378146171569824 207 225 242
12.333868980407715 1.9472988843917847 15.17349624633789 91 60 21
12.321795463562012 2.7065014839172363 15.381217002868652 0 9 28
12.413005828857422 0.30273449420928955 14.56454849243164 19 104 172
12.39877986907959 1.9129263162612915 15.103240013122559 146 118 84
12.373868942260742 1.7665843963623047 15.120086669921875 255 255 231
12.363301277160645 2.599999189376831 15.344137191772461 59 79 96
12.373562812805176 1.7668206691741943 15.120962142944336 255 255 231
12.373562812805176 1.7668206691741943 15.120962142944336 255 255 231
12.403127670288086 1.5982788801193237 14.970160484313965 171 132 104
12.355854034423828 1.3212602138519287 15.016484260559082 27 72 110
12.438560485839844 1.692646861076355 15.026596069335938 63 33 28
12.438560485839844 1.692646861076355 15.026596069335938 63 33 28
12.390267372131348 2.7389659881591797 15.411218643188477 0 5 22
12.511659622192383 0.891573429107666 14.674044609069824 34 88 143
12.452929496765137 2.2400712966918945 15.214295387268066 0 22 47
12.460012435913086 2.1350879669189453 15.19412899017334 31 40 54
12.476186752319336 1.900203824043274 15.100789070129395 81 49 8
12.511636734008789 0.6354455351829529 14.655377388000488 122 179 224
12.489295959472656 2.2882988452911377 15.235997200012207 1 21 56
12.460009574890137 2.1350901126861572 15.194132804870605 31 40 54
12.565730094909668 0.44395577907562256 14.578859329223633 219 241 247
12.565730094909668 0.44395577907562256 14.578859329223633 219 241 247
12.538898468017578 1.8946197032928467 15.13705825805664 255 255 235
12.538898468017578 1.8946197032928467 15.13705825805664 255 255 235
12.53890323638916 1.8946162462234497 15.137046813964844 255 255 235
12.514835357666016 2.2178869247436523 15.22233772277832 9 20 50
12.540958404541016 2.2402257919311523 15.215582847595215 109 156 200
12.556473731994629 1.819573998451233 15.075688362121582 255 255 250
12.538947105407715 1.8945783376693726 15.136942863464355 255 255 235
12.571399688720703 2.0980606079101562 15.151097297668457 74 123 173
12.603656768798828 0.7091909646987915 14.7036714553833 218 237 245
12.538652420043945 1.8948333263397217 15.137656211853027 255 255 235
12.64487361907959 1.879783272743225 15.114399909973145 255 237 212
12.64487361907959 1.879783272743225 15.114399909973145 255 237 212
12.621964454650879 1.6641180515289307 15.034884452819824 102 55 0
12.621964454650879 1.6641180515289307 15.034884452819824 102 55 0
12.675004959106445 0.36863985657691956 14.569628715515137 39 111 171
12.675004959106445 0.36863985657691956 14.569628715515137 39 111 171
12.644868850708008 1.8797861337661743 15.11441421508789 255 237 212
12.611322402954102 1.9901046752929688 15.23013687133789 89 59 30
12.611322402954102 1.9901046752929688 15.23013687133789 89 59 30
12.664695739746094 1.7892905473709106 15.009305000305176 67 42 22
12.666244506835938 1.6109199523925781 15.016664505004883 255 255 240
12.666244506835938 1.6109199523925781 15.016664505004883 255 255 240
12.644881248474121 1.8797768354415894 15.114383697509766 255 237 212
12.674820899963379 1.698430061340332 15.0330171585083 255 255 239
12.687864303588867 1.6557437181472778 15.039656639099121 108 66 13
12.651350021362305 2.716315269470215 15.428242683410645 22 39 52
12.718358039855957 1.856685757637024 15.103611946105957 255 255 240
12.774144172668457 0.11793117970228195 14.489436149597168 28 107 174
12.774144172668457 0.11793117970228195 14.489436149597168 28 107 174
12.755834579467773 2.3282575607299805 15.269172668457031 70 110 152
12.720756530761719 1.7226463556289673 15.067008972167969 166 138 107
12.720756530761719 1.7226463556289673 15.067008972167969 166 138 107
12.753654479980469 1.5585020780563354 14.951394081115723 85 46 0
12.753654479980469 1.5585020780563354 14.951394081115723 85 46 0
12.755834579467773 2.3282575607299805 15.269172668457031 70 110 152
12.797755241394043 1.5912648439407349 14.84898567199707 212 203 193
12.81301498413086 0.2858293056488037 14.547207832336426 196 218 229
12.81301498413086 0.2858293056488037 14.547207832336426 196 218 229
12.759932518005371 1.8185327053070068 15.096454620361328 112 62 4
12.78816032409668 1.6373106241226196 15.025782585144043 253 253 241
12.78816032409668 1.6373106241226196 15.025782585144043 253 253 241
12.796501159667969 1.5942341089248657 14.996170997619629 103 56 12
12.796501159667969 1.5942341089248657 14.996170997619629 103 56 12
12.755830764770508 2.328263282775879 15.269187927246094 70 110 152
12.835497856140137 1.6314836740493774 15.037819862365723 247 251 239
12.835494995117188 1.6314843893051147 15.037826538085938 247 251 239
12.835494995117188 1.6314843893051147 15.037826538085938 247 251 239
12.801514625549316 1.7774988412857056 15.108550071716309 255 237 214
12.835493087768555 1.6314857006072998 15.037829399108887 247 251 239
12.824440002441406 1.6921364068984985 15.076126098632812 255 255 239
12.801515579223633 1.7774989604949951 15.108551025390625 255 237 214
12.884785652160645 0.03405742719769478 14.481266975402832 216 232 244
12.83545970916748 2.356769323348999 15.406622886657715 38 80 123
12.83545970916748 2.356769323348999 15.406622886657715 38 80 123
12.915393829345703 0.6871964335441589 14.7288179397583 208 230 235
12.880471229553223 2.6261935234069824 15.419222831726074 147 163 180
12.835453033447266 2.3567776679992676 15.406647682189941 38 80 123
12.905827522277832 2.6676082611083984 15.456567764282227 25 36 63
12.942798614501953 2.5483129024505615 15.396455764770508 0 20 40
12.896135330200195 1.8774045705795288 15.23283863067627 75 43 2
12.896135330200195 1.8774045705795288 15.23283863067627 75 43 2
12.9618501663208 1.6695445775985718 15.085871696472168 254 245 236
12.957999229431152 1.6229966878890991 15.087553977966309 218 245 236
12.950159072875977 1.5651404857635498 15.058802604675293 186 156 127
12.950159072875977 1.5651404857635498 15.058802604675293 186 156 127
12.940118789672852 2.6101348400115967 15.44275951385498 0 8 27
13.036211967468262 0.6026504635810852 14.715131759643555 9 72 133
13.036211967468262 0.6026504635810852 14.715131759643555 9 72 133
12.994390487670898 0.6732082962989807 14.739251136779785 35 84 134
12.983519554138184 1.6549729108810425 15.099870681762695 55 33 21
13.013460159301758 0.686659038066864 14.748885154724121 7 85 154
12.956396102905273 2.6740658283233643 15.486137390136719 17 31 53
12.956396102905273 2.6740658283233643 15.486137390136719 17 31 53
12.96365737915039 2.1227211952209473 15.319693565368652 0 7 40
13.016101837158203 2.124159574508667 15.195799827575684 5 13 36
13.036213874816895 0.6026492714881897 14.715126991271973 9 72 133
13.028614044189453 1.6704834699630737 15.129526138305664 255 255 243
13.028614044189453 1.6704834699630737 15.129526138305664 255 255 243
13.019601821899414 2.6860828399658203 15.539483070373535 9 26 47
13.019601821899414 2.6860828399658203 15.539483070373535 9 26 47
13.05134105682373 2.120671272277832 15.222683906555176 8 9 23
13.037049293518066 1.744101643562317 15.139457702636719 116 76 41
13.076818466186523 1.651735544204712 15.127904891967773 191 176 167
13.076818466186523 1.651735544204712 15.127904891967773 191 176 167
13.076818466186523 1.651735544204712 15.127904891967773 191 176 167
13.0452241897583 1.9971034526824951 15.236939430236816 11 11 23
13.075966835021973 0.81719571352005 14.821810722351074 4 76 130
13.075966835021973 0.81719571352005 14.821810722351074 4 76 130
13.066640853881836 1.823357343673706 15.203422546386719 81 62 27
13.066640853881836 1.823357343673706 15.203422546386719 81 62 27
13.096320152282715 0.6372995972633362 14.748619079589844 202 227 231
13.066640853881836 1.823357343673706 15.203422546386719 81 62 27
13.019104957580566 2.6865956783294678 15.540831565856934 9 26 47
13.073049545288086 2.597618579864502 15.502005577087402 236 252 255
13.156037330627441 -0.5758949518203735 14.298233032226562 73 120 142
13.076820373535156 1.6517337560653687 15.127900123596191 191 176 167
