ply
format ascii 1.0
element vertex 709
property float x
property float y
property float z
property uchar red
property uchar green
property uchar blue
end_header
9.111839294433594 1.3162133693695068 16.846084594726562 36 69 95
9.70077896118164 1.3676308393478394 16.20584487915039 0 15 44
9.787785530090332 -1.9941571950912476 15.440827369689941 177 228 254
9.789814949035645 -0.9616439342498779 15.69089412689209 33 109 168
9.789814949035645 -0.9616439342498779 15.69089412689209 33 109 168
9.713415145874023 1.3308637142181396 16.208179473876953 214 238 250
9.713415145874023 1.3308637142181396 16.208179473876953 214 238 250
9.856234550476074 -1.761062502861023 15.489736557006836 163 210 242
9.770051956176758 0.1180281862616539 15.974005699157715 255 255 248
9.751306533813477 0.5905048251152039 16.113496780395508 75 124 192
9.893961906433105 -1.1298534870147705 15.678875923156738 187 221 237
9.893961906433105 -1.1298534870147705 15.678875923156738 187 221 237
9.902073860168457 -1.696487545967102 15.567398071289062 145 199 240
9.816476821899414 0.05606428161263466 15.972009658813477 239 255 255
9.751769065856934 0.9277467131614685 16.17667007446289 81 125 178
9.736907005310059 1.397666335105896 16.280118942260742 214 239 255
9.916080474853516 -2.147132158279419 15.47362232208252 57 108 170
9.944355964660645 -1.7808542251586914 15.510627746582031 12 100 170
9.835829734802246 0.26264017820358276 16.02726173400879 101 58 41
9.835829734802246 0.26264017820358276 16.02726173400879 101 58 41
9.911989212036133 -1.5841546058654785 15.601493835449219 50 100 152
9.807381629943848 1.3665188550949097 16.287879943847656 34 53 80
9.850114822387695 0.12151121348142624 16.009990692138672 255 255 240
9.868926048278809 0.0624188557267189 15.985404968261719 127 73 50
9.861577987670898 -0.08415520191192627 15.980467796325684 135 89 41
9.970044136047363 -1.5684624910354614 15.578763008117676 157 206 232
9.970044136047363 -1.5684624910354614 15.578763008117676 157 206 232
9.813817024230957 0.9332765936851501 16.253437042236328 23 45 70
9.903488159179688 -0.5813617706298828 15.82068157196045 102 146 183
9.841017723083496 1.1984519958496094 16.28929328918457 41 69 93
9.905481338500977 0.6791125535964966 16.11566925048828 69 86 105
9.934821128845215 -1.140693187713623 15.753703117370605 213 241 242
9.862759590148926 1.3516712188720703 16.303974151611328 28 50 75
9.862759590148926 1.3516712188720703 16.303974151611328 28 50 75
9.904987335205078 0.3130808472633362 16.07016372680664 255 255 237
9.91336441040039 0.1792633980512619 16.038230895996094 136 89 37
9.975202560424805 -1.585146188735962 15.663460731506348 162 208 255
10.02441692352295 -1.8830872774124146 15.53637981414795 191 235 255
10.02441692352295 -1.8830872774124146 15.53637981414795 191 235 255
9.917098045349121 0.2843627333641052 16.08513832092285 64 22 3
9.895875930786133 0.7206878066062927 16.206762313842773 28 27 43
9.997501373291016 0.5072002410888672 16.04659652709961 39 33 38
9.914534568786621 1.311856985092163 16.302339553833008 194 217 225
9.914534568786621 1.311856985092163 16.302339553833008 194 217 225
9.993366241455078 -0.6749188303947449 15.851574897766113 213 236 244
9.993366241455078 -0.6749188303947449 15.851574897766113 213 236 244
9.966790199279785 0.24290278553962708 16.056543350219727 227 250 235
10.044800758361816 -2.089653491973877 15.532633781433105 171 220 255
10.044161796569824 0.09178470820188522 15.94591236114502 255 255 245
9.977545738220215 0.03623770922422409 16.021038055419922 133 86 42
9.977545738220215 0.03623770922422409 16.021038055419922 133 86 42
9.977545738220215 0.03623770922422409 16.021038055419922 133 86 42
10.050268173217773 -2.063904047012329 15.547415733337402 37 95 147
10.050106048583984 -1.9936341047286987 15.561498641967773 38 98 164
10.093976020812988 -2.1702327728271484 15.47802734375 53 103 156
10.088805198669434 -2.2151541709899902 15.498631477355957 160 204 233
10.047929763793945 -1.6192805767059326 15.673877716064453 22 104 169
9.97821044921875 0.6489584445953369 16.199729919433594 85 92 112
10.006195068359375 0.2922423779964447 16.10563850402832 246 253 232
10.077343940734863 -2.07492995262146 15.581829071044922 200 229 244
10.084596633911133 -1.9409668445587158 15.59744930267334 73 117 164
10.099203109741211 -1.8324228525161743 15.628376007080078 100 156 197
9.998005867004395 1.2990012168884277 16.313610076904297 218 240 251
10.08164119720459 -1.1202901601791382 15.776253700256348 26 103 172
10.102962493896484 -2.249340057373047 15.54116439819336 31 92 172
10.11064338684082 -0.06094840541481972 15.950467109680176 104 66 36
10.100462913513184 -0.6142011880874634 15.914618492126465 71 131 173
10.118888854980469 -1.8903075456619263 15.609334945678711 209 246 244
10.12597942352295 -2.1799144744873047 15.555816650390625 142 195 246
10.128565788269043 -1.9402127265930176 15.600074768066406 185 226 248
10.128565788269043 -1.9402127265930176 15.600074768066406 185 226 248
10.040916442871094 1.263965129852295 16.317092895507812 24 44 62
10.13672924041748 -1.624204397201538 15.668371200561523 196 235 255
10.101714134216309 -1.2151515483856201 15.818536758422852 201 229 230
10.163198471069336 -2.2396416664123535 15.549674034118652 142 194 230
10.06013298034668 0.07782763987779617 16.052616119384766 139 104 90
10.045989036560059 1.355773687362671 16.34652328491211 37 59 84
10.058749198913574 0.33124083280563354 16.164203643798828 164 131 82
10.058749198913574 0.33124083280563354 16.164203643798828 164 131 82
10.083674430847168 0.23312224447727203 16.126708984375 226 239 231
10.083674430847168 0.23312224447727203 16.126708984375 226 239 231
10.149751663208008 -1.8561670780181885 15.652061462402344 89 133 187
10.1436767578125 -1.894365906715393 15.667221069335938 106 143 187
10.1436767578125 -1.894365906715393 15.667221069335938 106 143 187
10.139277458190918 -1.43451726436615 15.718817710876465 189 234 255
10.139229774475098 -1.5429868698120117 15.792235374450684 52 96 143
10.198389053344727 -2.109236717224121 15.564774513244629 209 236 246
10.063895225524902 1.2491631507873535 16.375350952148438 223 242 255
10.13595962524414 -1.2628488540649414 15.820897102355957 201 229 246
10.158254623413086 -1.1747617721557617 15.811994552612305 209 236 246
10.121834754943848 0.24333861470222473 16.131046295166016 95 52 13
10.312885284423828 -2.1924099922180176 15.446846961975098 131 188 233
10.191243171691895 -2.305708169937134 15.59330940246582 182 225 252
9.957258224487305 1.4079790115356445 16.53277587890625 84 107 129
10.11466121673584 -0.08687936514616013 16.079633712768555 93 46 0
10.1436767578125 -1.8943663835525513 15.667220115661621 106 143 187
10.18557357788086 -1.7904280424118042 15.682611465454102 216 236 241
10.193888664245605 -1.616100549697876 15.705963134765625 201 235 251
10.189203262329102 -1.50188148021698 15.738821983337402 160 204 235
10.142295837402344 0.0014597406843677163 16.084718704223633 82 97 93
10.145689964294434 0.007378180045634508 16.083566665649414 75 88 90
10.1826810836792 -1.9737834930419922 15.661299705505371 119 150 175
10.160857200622559 0.034204963594675064 16.07309913635254 236 237 228
10.196335792541504 -2.142094612121582 15.623766899108887 16 98 179
10.141311645507812 0.07895922660827637 16.117542266845703 110 53 0
10.184932708740234 -1.3421390056610107 15.815649032592773 13 95 166
10.184932708740234 -1.3421390056610107 15.815649032592773 13 95 166
10.242813110351562 -2.0284829139709473 15.635854721069336 113 165 206
10.199570655822754 -1.629472255706787 15.743751525878906 169 198 207
10.139215469360352 -1.542986273765564 15.792257308959961 52 96 143
10.2454252243042 -1.926910400390625 15.64380931854248 207 236 243
9.990194320678711 -0.09423735737800598 16.330013275146484 117 65 0
10.136139869689941 1.2645995616912842 16.4007625579834 87 102 118
10.136139869689941 1.2645995616912842 16.4007625579834 87 102 118
10.207282066345215 -1.229767084121704 15.83388614654541 20 89 169
10.207282066345215 -1.229767084121704 15.83388614654541 20 89 169
10.1669340133667 1.211348056793213 16.404308319091797 52 72 90
10.23882007598877 -1.857245683670044 15.699283599853516 69 129 175
10.226286888122559 -1.7337702512741089 15.73372745513916 14 86 158
10.275327682495117 -1.7168024778366089 15.73364543914795 88 131 180
10.231897354125977 -1.5145336389541626 15.788158416748047 158 202 233
10.187590599060059 0.06886836886405945 16.178665161132812 153 128 102
10.261293411254883 -2.2678167819976807 15.613866806030273 33 82 150
10.273519515991211 -1.5950844287872314 15.800287246704102 126 169 208
10.215810775756836 -1.2858328819274902 15.808491706848145 14 85 153
10.215810775756836 -1.2858328819274902 15.808491706848145 14 85 153
10.24145221710205 -1.6457529067993164 15.785677909851074 183 217 246
10.271472930908203 -2.2312748432159424 15.635031700134277 155 207 244
10.271472930908203 -2.2312748432159424 15.635031700134277 155 207 244
10.18759536743164 0.06886734813451767 16.178659439086914 153 128 102
10.260913848876953 -1.1982250213623047 15.882611274719238 205 235 236
10.260913848876953 -1.1982250213623047 15.882611274719238 205 235 236
10.275996208190918 -1.7168192863464355 15.732762336730957 88 131 180
10.18759536743164 0.06886734813451767 16.178659439086914 153 128 102
9.803215026855469 2.03771710395813 17.078243255615234 81 90 94
10.293926239013672 -2.0483040809631348 15.685276985168457 10 96 172
10.273825645446777 -1.5951265096664429 15.799927711486816 126 169 208
10.235992431640625 -0.061713479459285736 16.15336799621582 201 219 220
10.289815902709961 -1.5314735174179077 15.8042573928833 152 199 243
10.275408744812012 1.2586385011672974 16.373865127563477 98 119 134
10.18759536743164 0.06886734813451767 16.178659439086914 153 128 102
10.18759536743164 0.06886734813451767 16.178659439086914 153 128 102
10.28317642211914 -1.2519843578338623 15.885135650634766 195 226 225
10.28317642211914 -1.2519843578338623 15.885135650634766 195 226 225
10.294646263122559 -1.5498919486999512 15.835067749023438 59 105 152
10.294646263122559 -1.5498919486999512 15.835067749023438 59 105 152
10.315903663635254 -2.151238441467285 15.685972213745117 139 200 240
10.280523300170898 0.011727883480489254 16.171138763427734 73 37 31
10.280523300170898 0.011727883480489254 16.171138763427734 73 37 31
10.28604507446289 -2.63848614692688 15.582500457763672 73 140 197
10.285569190979004 -0.060855209827423096 16.153871536254883 52 19 0
10.30272388458252 -1.5633500814437866 15.860386848449707 163 206 249
10.303226470947266 -1.1951823234558105 15.896080017089844 101 146 197
10.313340187072754 -1.6130295991897583 15.849997520446777 65 105 163
10.336638450622559 -1.7179030179977417 15.807938575744629 196 224 231
10.336638450622559 -1.7179030179977417 15.807938575744629 196 224 231
10.345622062683105 -1.5904783010482788 15.836523056030273 62 111 161
10.336101531982422 -2.131951332092285 15.712944984436035 132 190 239
10.316618919372559 0.00696817459538579 16.19245147705078 244 255 249
10.368512153625488 -1.9711179733276367 15.745918273925781 94 161 222
10.368512153625488 -1.9711179733276367 15.745918273925781 94 161 222
10.379990577697754 -1.9290008544921875 15.74260139465332 7 91 157
10.364233016967773 -1.225374698638916 15.960506439208984 163 193 218
10.339838027954102 -0.19264335930347443 16.143476486206055 108 65 2
10.466710090637207 -1.6561286449432373 15.690827369689941 53 95 148
10.358996391296387 -1.604561448097229 15.861136436462402 157 205 239
10.342272758483887 -0.04969483241438866 16.208772659301758 125 69 10
10.342123031616211 -1.5759011507034302 15.922541618347168 45 92 143
10.343920707702637 -0.10688263922929764 16.206918716430664 255 255 241
10.4152250289917 -2.1634597778320312 15.71220588684082 147 191 232
10.349573135375977 -2.9010000228881836 15.66427993774414 186 206 217
10.379467010498047 -1.694911003112793 15.865273475646973 64 105 160
10.36849308013916 -0.6723567843437195 16.107818603515625 79 131 177
10.372020721435547 -0.07704991102218628 16.199949264526367 80 34 10
10.372020721435547 -0.07704991102218628 16.199949264526367 80 34 10
10.410950660705566 -3.0251314640045166 15.59078598022461 120 137 146
10.398542404174805 -1.6091928482055664 15.891216278076172 68 104 152
10.357934951782227 -2.9053781032562256 15.753443717956543 24 20 39
10.392722129821777 -2.159559488296509 15.807384490966797 46 96 156
10.441332817077637 -2.1133291721343994 15.762916564941406 146 186 214
10.37240982055664 -2.0648128986358643 15.789166450500488 116 167 207
10.362131118774414 -2.9051742553710938 15.748542785644531 24 20 39
10.36849308013916 -0.6723567843437195 16.107818603515625 79 131 177
10.409223556518555 -2.9791691303253174 15.630663871765137 160 183 191
10.387680053710938 0.04561668634414673 16.279312133789062 141 110 71
10.387680053710938 0.04561668634414673 16.279312133789062 141 110 71
10.431276321411133 -1.7000800371170044 15.883376121520996 150 206 247
10.392626762390137 -1.7524019479751587 15.854557991027832 116 158 200
10.437189102172852 -3.022350549697876 15.616612434387207 196 219 227
10.44566822052002 -2.9012715816497803 15.650964736938477 56 59 74
10.449760437011719 -1.8278876543045044 15.850665092468262 52 96 143
10.397433280944824 -1.8913182020187378 15.872540473937988 136 184 226
10.422517776489258 -2.7638983726501465 15.722402572631836 159 180 188
10.427118301391602 -0.12974455952644348 16.27220344543457 162 131 92
10.427118301391602 -0.12974455952644348 16.27220344543457 162 131 92
10.471975326538086 -1.7530790567398071 15.860482215881348 164 217 250
10.427118301391602 -0.12974455952644348 16.27220344543457 162 131 92
10.486130714416504 -2.1464874744415283 15.79114818572998 173 217 241
10.464534759521484 -3.0241386890411377 15.675516128540039 163 186 194
10.454163551330566 -1.7822543382644653 15.893930435180664 44 98 145
10.459831237792969 -3.023078441619873 15.682695388793945 163 186 194
10.44566822052002 -2.9012715816497803 15.650964736938477 56 59 74
10.44566822052002 -2.9012715816497803 15.650964736938477 56 59 74
10.445677757263184 -2.901271104812622 15.650954246520996 56 59 74
10.445677757263184 -2.901271104812622 15.650954246520996 56 59 74
10.476252555847168 -1.8872843980789185 15.871177673339844 125 176 209
10.498289108276367 -2.85671067237854 15.673772811889648 200 229 236
10.467974662780762 -0.7893491983413696 16.126951217651367 203 227 233
10.512886047363281 -2.794504404067993 15.711034774780273 51 63 75
10.512886047363281 -2.794504404067993 15.711034774780273 51 63 75
9.331873893737793 2.5776941776275635 18.486892700195312 90 74 62
10.530540466308594 -2.8147659301757812 15.688587188720703 94 100 113
10.538777351379395 -2.935049295425415 15.712625503540039 133 157 163
10.538777351379395 -2.935049295425415 15.712625503540039 133 157 163
10.552919387817383 -2.8604207038879395 15.724793434143066 225 234 248
10.667121887207031 -2.7123472690582275 15.681451797485352 125 154 181
10.545825004577637 -2.837498903274536 15.822656631469727 45 48 62
10.545817375183105 -2.8374998569488525 15.822667121887207 45 48 62
10.624723434448242 -3.082003355026245 15.696878433227539 174 203 212
10.577705383300781 -2.8215978145599365 15.810437202453613 51 66 75
10.577705383300781 -2.8215978145599365 15.810437202453613 51 66 75
10.574252128601074 -1.3286579847335815 16.11083221435547 195 220 224
10.570110321044922 -0.7219721078872681 16.21048927307129 105 158 201
10.630385398864746 -1.3988090753555298 16.156980514526367 30 85 146
10.648764610290527 -1.2699174880981445 16.14459800720215 67 130 180
10.61752700805664 -3.0698869228363037 15.808305740356445 178 200 211
10.643425941467285 -2.9294071197509766 15.81747055053711 198 216 227
11.108917236328125 1.9977713823318481 16.146875381469727 175 169 156
10.654512405395508 -2.864856719970703 15.830585479736328 226 245 255
10.654512405395508 -2.864856719970703 15.830585479736328 226 245 255
10.630372047424316 -1.398805022239685 16.15699577331543 30 85 146
10.658524513244629 -2.960123062133789 15.818696975708008 10 23 37
10.658524513244629 -2.960123062133789 15.818696975708008 10 23 37
10.664100646972656 -1.3136284351348877 16.177274703979492 14 85 152
10.69662094116211 -1.3932161331176758 16.16529083251953 187 215 216
10.682185173034668 -2.9280035495758057 15.87258243560791 193 222 229
10.692896842956543 -0.7608431577682495 16.346710205078125 85 144 193
10.67959976196289 1.2223987579345703 16.753870010375977 23 30 50
10.640759468078613 1.368109941482544 16.79312515258789 83 105 123
10.640759468078613 1.368109941482544 16.79312515258789 83 105 123
10.523452758789062 -2.999128580093384 16.140222549438477 18 27 41
10.70007038116455 1.2314730882644653 16.74102783203125 48 59 79
10.70007038116455 1.2314730882644653 16.74102783203125 48 59 79
10.726223945617676 -2.9875457286834717 15.889738082885742 19 26 41
10.679315567016602 -3.126089572906494 15.926168441772461 126 147 155
10.692896842956543 -0.7608431577682495 16.346710205078125 85 144 193
10.41485595703125 -3.0973708629608154 16.27054214477539 136 159 167
10.726506233215332 -2.9875283241271973 15.889389038085938 19 26 41
10.73438549041748 -3.1111364364624023 15.904650688171387 185 206 214
10.73438549041748 -3.1111364364624023 15.904650688171387 185 206 214
10.73947525024414 1.1902728080749512 16.803512573242188 106 115 129
10.748074531555176 -1.3567606210708618 16.26605796813965 192 216 222
10.708636283874512 -3.0488433837890625 15.993880271911621 181 209 216
10.708636283874512 -3.0488433837890625 15.993880271911621 181 209 216
10.67159652709961 -1.0743993520736694 16.474403381347656 191 217 223
10.766098976135254 -0.872704267501831 16.419031143188477 191 220 229
10.766098976135254 -0.872704267501831 16.419031143188477 191 220 229
10.758853912353516 -2.9994871616363525 15.963623046875 94 109 118
10.771610260009766 -3.1333541870117188 15.964838981628418 183 203 214
10.753003120422363 -2.8872432708740234 16.027502059936523 89 101 113
10.787567138671875 -1.0188838243484497 16.40677261352539 184 211 225
10.793164253234863 -3.103222608566284 15.95900821685791 140 166 172
10.80671215057373 -3.0198113918304443 16.00179100036621 43 57 69
10.80671215057373 -3.0198113918304443 16.00179100036621 43 57 69
10.782556533813477 -3.041562557220459 16.069059371948242 165 186 194
10.845283508300781 -1.2857778072357178 16.37857437133789 3 80 142
10.845283508300781 -1.2857778072357178 16.37857437133789 3 80 142
10.779513359069824 1.261727213859558 17.008825302124023 204 233 238
10.779513359069824 1.261727213859558 17.008825302124023 204 233 238
10.862740516662598 -1.1610041856765747 16.431833267211914 188 212 218
10.862740516662598 -1.1610041856765747 16.431833267211914 188 212 218
10.902312278747559 1.1746324300765991 16.945974349975586 209 239 244
10.878727912902832 -2.9129984378814697 16.116146087646484 174 202 209
10.905683517456055 -1.4283133745193481 16.397964477539062 185 211 217
10.900623321533203 1.1857635974884033 16.985366821289062 186 197 217
10.900623321533203 1.1857635974884033 16.985366821289062 186 197 217
10.994829177856445 1.075087070465088 16.929994583129883 133 154 169
10.921552658081055 1.2166674137115479 16.985017776489258 15 16 42
10.921452522277832 -1.5061113834381104 16.489728927612305 34 76 121
10.908035278320312 -2.8574750423431396 16.239830017089844 78 117 149
10.908035278320312 -2.8574750423431396 16.239830017089844 78 117 149
10.985838890075684 -1.0264593362808228 16.562217712402344 37 91 138
10.989240646362305 1.1442452669143677 16.991941452026367 18 39 61
10.975391387939453 -1.4131970405578613 16.475515365600586 27 71 124
10.988080024719238 -0.4925747513771057 16.699552536010742 181 181 175
11.586114883422852 1.328518271446228 16.218669891357422 56 50 45
11.011638641357422 1.2229487895965576 17.07164192199707 14 35 62
11.0100736618042 -0.9565227627754211 16.605770111083984 12 71 117
10.99024772644043 -1.4777415990829468 16.53316879272461 163 200 220
10.99024772644043 -1.4777415990829468 16.53316879272461 163 200 220
11.053850173950195 0.33378610014915466 16.929317474365234 166 162 157
11.053850173950195 0.33378610014915466 16.929317474365234 166 162 157
11.053850173950195 0.33378610014915466 16.929317474365234 166 162 157
11.064312934875488 1.237869143486023 17.09602928161621 166 185 206
10.684883117675781 1.4212563037872314 17.72916030883789 166 185 206
11.08468246459961 0.262296199798584 16.916147232055664 31 48 67
11.082797050476074 1.1484653949737549 17.134151458740234 17 23 52
11.082797050476074 1.1484653949737549 17.134151458740234 17 23 52
11.097835540771484 1.1764628887176514 17.14505386352539 189 208 221
11.139570236206055 1.0530064105987549 17.13155746459961 131 156 172
11.139570236206055 1.0530064105987549 17.13155746459961 131 156 172
11.351208686828613 -2.967548370361328 17.512990951538086 85 95 102
11.543986320495605 -0.10164207965135574 18.038862228393555 33 41 48
11.141646385192871 -1.2300670146942139 18.551860809326172 58 70 76
11.640352249145508 -0.2419634759426117 17.991283416748047 46 55 59
11.462889671325684 -1.507225751876831 18.031551361083984 107 118 122
11.530945777893066 -1.2099519968032837 18.018112182617188 52 61 64
11.206439971923828 -1.8494226932525635 18.41721534729004 108 120 124
11.176249504089355 -2.1038947105407715 18.502288818359375 75 81 86
11.122962951660156 -2.2226788997650146 18.617115020751953 91 102 106
11.62874984741211 -0.4622954726219177 18.305700302124023 68 79 77
9.033273696899414 -5.947523593902588 8.029510498046875 209 213 232
8.73062515258789 -6.134260177612305 8.097500801086426 236 233 242
8.73062515258789 -6.134260177612305 8.097500801086426 236 233 242
8.568305969238281 -5.980110168457031 8.154585838317871 63 79 192
8.728764533996582 -5.919192314147949 8.225671768188477 64 83 198
8.989017486572266 -6.045107364654541 8.222946166992188 141 146 155
9.009963989257812 -6.016286849975586 8.244324684143066 206 210 221
10.81244945526123 -2.849112033843994 8.107250213623047 201 213 223
10.81244945526123 -2.849112033843994 8.107250213623047 201 213 223
17.20402717590332 -2.9141392707824707 8.323822975158691 224 247 249
17.296403884887695 -2.9187023639678955 8.336601257324219 226 245 252
17.233806610107422 -2.0735981464385986 8.571592330932617 30 47 68
17.32671546936035 -2.710237979888916 8.402738571166992 220 245 249
17.35915756225586 -2.70369291305542 8.41204833984375 38 97 166
17.321027755737305 -2.3409345149993896 8.501224517822266 136 69 6
17.321027755737305 -2.3409345149993896 8.501224517822266 136 69 6
17.33937644958496 -2.3432998657226562 8.508655548095703 158 174 163
17.40877342224121 -2.7091751098632812 8.428692817687988 154 193 221
17.443153381347656 -2.936110258102417 8.384532928466797 16 103 177
17.46412467956543 -2.919633388519287 8.40070915222168 115 152 186
17.406747817993164 -2.2765700817108154 8.555602073669434 43 42 52
17.469179153442383 -2.9070544242858887 8.407584190368652 210 240 251
17.46438980102539 -2.84765887260437 8.42591381072998 219 241 247
17.46438980102539 -2.84765887260437 8.42591381072998 219 241 247
17.478364944458008 -2.9483368396759033 8.401382446289062 212 235 243
17.472505569458008 -2.7341415882110596 8.45099925994873 205 230 232
17.49239158630371 -2.9273488521575928 8.413434982299805 137 163 187
17.49239158630371 -2.9273488521575928 8.413434982299805 137 163 187
17.4882755279541 -2.881152629852295 8.424823760986328 218 241 243
17.461462020874023 -2.3982937335968018 8.522188186645508 136 122 103
17.500722885131836 -2.9161646366119385 8.418890953063965 198 235 243
17.49221420288086 -2.839560031890869 8.439451217651367 184 218 231
17.518556594848633 -2.948765754699707 8.422687530517578 11 97 167
17.563127517700195 -3.1665728092193604 8.402083396911621 116 128 138
17.53758430480957 -2.7345311641693115 8.492593765258789 165 197 216
17.561256408691406 -3.1316099166870117 8.419828414916992 150 172 178
17.561256408691406 -3.1316099166870117 8.419828414916992 150 172 178
17.540470123291016 -2.5925076007843018 8.529398918151855 103 157 190
17.58268165588379 -3.151320457458496 8.425870895385742 49 61 71
17.61879539489746 -2.778346300125122 8.550630569458008 191 214 222
17.595251083374023 -2.442246675491333 8.653661727905273 106 57 1
17.61142349243164 -2.0990166664123535 8.709307670593262 113 119 142
17.61142349243164 -2.0990166664123535 8.709307670593262 113 119 142
17.64282989501953 -2.708883762359619 8.590923309326172 192 218 224
17.661394119262695 -3.202434778213501 8.498385429382324 164 187 195
17.64435577392578 -2.6451239585876465 8.605435371398926 189 219 224
17.660755157470703 -2.7513113021850586 8.600478172302246 22 90 149
17.660755157470703 -2.7513113021850586 8.600478172302246 22 90 149
17.668968200683594 -3.1701812744140625 8.53275203704834 177 203 210
17.66395378112793 -2.7186312675476074 8.61577033996582 190 218 219
17.66395378112793 -2.7186312675476074 8.61577033996582 190 218 219
17.66395378112793 -2.7186312675476074 8.61577033996582 190 218 219
17.664154052734375 -2.68190860748291 8.622101783752441 19 89 148
17.664154052734375 -2.68190860748291 8.622101783752441 19 89 148
17.670249938964844 -2.7873315811157227 8.613630294799805 183 212 221
17.82369613647461 -2.609182596206665 9.023274421691895 10 16 23
17.828824996948242 -2.744938373565674 9.061103820800781 23 27 28
4.921656131744385 -2.540229320526123 15.408246994018555 103 164 220
5.147017002105713 -1.6703858375549316 15.589811325073242 84 135 191
5.512210369110107 -1.0062789916992188 15.831462860107422 185 235 255
5.335351467132568 -1.1426421403884888 16.410648345947266 198 240 255
5.0535173416137695 -2.98909592628479 16.216215133666992 216 238 250
5.11313009262085 -2.870967149734497 16.393396377563477 116 130 142
5.078227519989014 -2.687346935272217 16.397645950317383 3 15 27
5.125772476196289 -2.7359778881073 16.383380889892578 6 10 28
6.290794849395752 -0.801892101764679 16.117401123046875 12 96 172
5.133890628814697 -2.734955072402954 16.605539321899414 18 36 47
5.190218448638916 -2.865278720855713 16.570215225219727 214 229 245
5.208593845367432 -2.7770333290100098 16.593965530395508 215 222 242
5.407558441162109 -3.0546860694885254 16.554237365722656 156 181 191
5.407558441162109 -3.0546860694885254 16.554237365722656 156 181 191
5.295320987701416 -0.8141006827354431 17.037687301635742 200 227 231
5.397156238555908 -2.8635711669921875 16.552288055419922 194 226 232
5.397156238555908 -2.8635711669921875 16.552288055419922 194 226 232
5.407565116882324 -3.0546858310699463 16.55423355102539 156 181 191
5.310827732086182 -2.7597384452819824 16.712444305419922 125 147 159
5.459295272827148 -0.424177885055542 17.171079635620117 192 215 223
5.364310264587402 -2.8932995796203613 16.79999351501465 10 10 26
5.39273738861084 -2.8085289001464844 16.791242599487305 77 86 99
5.454524517059326 -3.206681728363037 16.711219787597656 167 197 208
5.392764568328857 -2.8085291385650635 16.791223526000977 77 86 99
5.443178176879883 -3.168936014175415 16.734529495239258 85 112 122
5.463135719299316 -2.907280683517456 16.79232406616211 44 60 72
5.463135719299316 -2.907280683517456 16.79232406616211 44 60 72
5.452061176300049 -2.9859631061553955 16.794593811035156 29 51 63
5.452061176300049 -2.9859631061553955 16.794593811035156 29 51 63
5.407479286193848 -2.8220620155334473 16.87872314453125 63 82 95
5.609471797943115 -3.009608030319214 16.70453453063965 130 150 161
5.494485855102539 -3.1496167182922363 16.831396102905273 174 201 211
5.540524482727051 -2.841301441192627 16.95768165588379 181 207 214
5.916117191314697 -0.8123100399971008 17.160781860351562 187 225 249
5.535190582275391 -0.943911075592041 17.49295425415039 11 63 110
6.204990863800049 -2.5148537158966064 18.57602310180664 156 171 180
7.344038009643555 -3.50335693359375 17.894384384155273 50 58 65
6.499448299407959 -1.9373286962509155 19.201173782348633 45 52 55
7.34110164642334 0.7222675681114197 19.308555603027344 0 1 11
7.032310485839844 -2.6678507328033447 14.168339729309082 138 190 231
6.065830230712891 -1.7883158922195435 14.848703384399414 238 255 246
6.065830230712891 -1.7883158922195435 14.848703384399414 238 255 246
6.158421516418457 -1.2027887105941772 15.09000015258789 20 108 179
6.588461875915527 -1.170742392539978 15.064537048339844 240 254 253
6.896770477294922 -0.9664254784584045 15.168769836425781 30 95 146
6.8639631271362305 -1.1397393941879272 15.200582504272461 11 103 176
7.01092004776001 -0.8533535003662109 15.208107948303223 219 254 255
7.509931564331055 -1.8966468572616577 14.807869911193848 168 220 255
7.509931564331055 -1.8966468572616577 14.807869911193848 168 220 255
7.13050651550293 -0.8899891376495361 15.235997200012207 170 214 238
7.13050651550293 -0.8899891376495361 15.235997200012207 170 214 238
7.465152263641357 -0.9383208155632019 15.251977920532227 191 220 234
8.51202392578125 -1.9054622650146484 14.503424644470215 60 137 200
8.51202392578125 -1.9054622650146484 14.503424644470215 60 137 200
7.18855094909668 -0.33786502480506897 15.486327171325684 224 249 253
7.18855094909668 -0.33786502480506897 15.486327171325684 224 249 253
7.062652587890625 0.5508066415786743 15.830964088439941 67 35 22
7.540567874908447 -1.333027958869934 15.116792678833008 19 106 173
7.436766147613525 -0.30759117007255554 15.493303298950195 66 118 171
7.465152263641357 -0.9383208155632019 15.251977920532227 191 220 234
8.030264854431152 -2.2136218547821045 14.771977424621582 27 99 176
7.872179985046387 -1.7975901365280151 14.948269844055176 227 250 252
7.215094089508057 0.7668573260307312 15.836488723754883 189 169 128
7.215094089508057 0.7668573260307312 15.836488723754883 189 169 128
7.062624931335449 0.550814151763916 15.830978393554688 67 35 22
7.062624931335449 0.550814151763916 15.830978393554688 67 35 22
7.824145317077637 -1.4908920526504517 15.058460235595703 189 247 255
7.847671985626221 -1.459302306175232 15.07480525970459 30 96 161
8.177531242370605 -1.3504668474197388 14.956257820129395 34 82 124
7.192968845367432 0.34939002990722656 15.801843643188477 135 103 54
7.192968845367432 0.34939002990722656 15.801843643188477 135 103 54
7.205456733703613 0.4677504301071167 15.833864212036133 55 67 71
7.505903720855713 -1.5215123891830444 15.260401725769043 114 153 181
8.057509422302246 -2.056476593017578 14.861745834350586 212 251 255
8.057509422302246 -2.056476593017578 14.861745834350586 212 251 255
7.858252048492432 -1.354569435119629 15.141057014465332 189 231 255
7.8535990715026855 -1.4757860898971558 15.114175796508789 224 255 255
7.990240573883057 -1.6923540830612183 15.005030632019043 220 239 244
8.151202201843262 -2.2674968242645264 14.811285018920898 207 254 255
7.927422046661377 -1.50925874710083 15.102239608764648 219 251 255
7.927422046661377 -1.50925874710083 15.102239608764648 219 251 255
7.21536922454834 0.5205711722373962 15.929047584533691 173 158 149
8.060049057006836 -1.8442792892456055 14.973396301269531 225 250 255
7.740764617919922 -1.0928369760513306 15.284086227416992 18 95 164
8.092408180236816 -2.244931221008301 14.931949615478516 211 252 255
8.05613899230957 -1.5265593528747559 15.102678298950195 190 230 255
7.3362135887146 0.4972817003726959 15.91691780090332 255 254 249
7.3362135887146 0.4972817003726959 15.91691780090332 255 254 249
7.877918720245361 -0.9707801938056946 15.32283878326416 14 85 142
8.202502250671387 -1.7860702276229858 14.944960594177246 89 145 180
8.028483390808105 -1.4548969268798828 15.160021781921387 88 138 174
7.470155715942383 0.35594290494918823 15.856555938720703 65 40 30
8.338386535644531 -1.998077392578125 14.89835262298584 17 103 179
7.978986740112305 -1.5180883407592773 15.17302417755127 104 139 179
7.92547082901001 -1.074255108833313 15.323612213134766 212 235 243
7.92547082901001 -1.074255108833313 15.323612213134766 212 235 243
7.5236921310424805 0.3135911226272583 15.84729290008545 255 255 238
7.5236921310424805 0.3135911226272583 15.84729290008545 255 255 238
8.028477668762207 -1.454896092414856 15.160022735595703 88 138 174
8.183762550354004 -1.6137446165084839 15.12950611114502 220 242 247
8.422773361206055 -1.807661771774292 14.98828125 134 187 237
7.3845391273498535 0.24556699395179749 15.957636833190918 122 91 46
7.590068817138672 0.29324081540107727 15.882621765136719 255 247 226
7.590068817138672 0.29324081540107727 15.882621765136719 255 247 226
8.216394424438477 -1.531776785850525 15.159826278686523 32 81 149
8.510855674743652 -2.747313976287842 14.752062797546387 203 225 236
8.510855674743652 -2.747313976287842 14.752062797546387 203 225 236
7.643514633178711 0.2926948070526123 15.910715103149414 242 254 254
7.822235584259033 -0.3916842043399811 15.651566505432129 38 104 155
7.680563926696777 0.2738823890686035 15.933968544006348 255 255 241
7.680563926696777 0.2738823890686035 15.933968544006348 255 255 241
8.235394477844238 -2.0976624488830566 15.1478853225708 196 246 255
8.211956977844238 -1.087746500968933 15.388788223266602 214 241 255
7.96450662612915 -0.5077618956565857 15.67811107635498 210 230 241
7.96450662612915 -0.5077618956565857 15.67811107635498 210 230 241
8.744603157043457 -2.776991128921509 14.773406028747559 197 215 226
8.744603157043457 -2.776991128921509 14.773406028747559 197 215 226
8.440512657165527 -1.8096389770507812 15.14698314666748 150 205 242
8.549559593200684 -1.8202604055404663 15.135370254516602 63 109 150
8.836749076843262 -2.883201837539673 14.739700317382812 208 234 241
8.952385902404785 -2.968536138534546 14.736651420593262 157 175 186
8.7809476852417 -2.8517935276031494 14.826302528381348 9 10 30
8.952378273010254 -2.968534231185913 14.736655235290527 157 175 186
9.063283920288086 -2.901340961456299 14.706644058227539 203 200 216
8.88640308380127 -2.8269739151000977 14.8185396194458 208 234 248
7.911505699157715 -2.6950488090515137 15.354201316833496 147 172 198
8.41260814666748 -1.1783865690231323 15.47430419921875 194 223 230
8.47131633758545 -1.1073530912399292 15.538662910461426 127 182 221
9.051854133605957 -2.857226848602295 14.794654846191406 22 33 47
9.051854133605957 -2.857226848602295 14.794654846191406 22 33 47
8.488106727600098 -1.2576570510864258 15.50857162475586 11 78 147
9.002762794494629 -3.096853733062744 14.78006649017334 199 225 232
9.051909446716309 -2.8572301864624023 14.794621467590332 22 33 47
9.04623031616211 -3.1776111125946045 14.756844520568848 173 203 214
8.488106727600098 -1.2576568126678467 15.50857162475586 11 78 147
8.972439765930176 -2.855525016784668 14.89618968963623 26 45 53
8.972439765930176 -2.855525016784668 14.89618968963623 26 45 53
8.189188957214355 -0.11413463205099106 15.971118927001953 29 96 145
9.027310371398926 -2.959735155105591 14.86690902709961 243 252 255
9.005885124206543 -2.8871865272521973 14.906179428100586 243 252 255
8.36255931854248 -0.5235602259635925 15.83133602142334 76 140 194
8.36255931854248 -0.5235602259635925 15.83133602142334 76 140 194
8.049665451049805 0.24807456135749817 16.22622299194336 109 59 0
9.026803970336914 -3.012634038925171 14.986156463623047 15 20 35
9.025014877319336 -3.0125842094421387 14.98725414276123 15 20 35
8.464360237121582 -0.6416136026382446 15.893462181091309 204 230 237
9.176003456115723 -3.0318000316619873 15.004693031311035 122 136 148
9.793309211730957 -2.8575427532196045 14.725641250610352 192 218 225
9.176007270812988 -3.0318000316619873 15.004691123962402 122 136 148
9.150242805480957 -2.979429006576538 15.058509826660156 16 19 34
9.087044715881348 -2.9113166332244873 15.097926139831543 77 95 106
9.176007270812988 -3.0318000316619873 15.004691123962402 122 136 148
9.087037086486816 -2.9113166332244873 15.097930908203125 77 95 106
9.087037086486816 -2.9113166332244873 15.097930908203125 77 95 106
8.579774856567383 -0.8083019852638245 15.951446533203125 8 93 149
8.579774856567383 -0.8083019852638245 15.951446533203125 8 93 149
8.763758659362793 -0.9413914084434509 15.888450622558594 89 145 192
8.763758659362793 -0.9413914084434509 15.888450622558594 89 145 192
8.684020042419434 -0.6995319128036499 16.05402183532715 194 218 230
8.864517211914062 -1.237205982208252 15.835489273071289 185 220 224
9.335371971130371 -2.9402081966400146 15.160991668701172 182 205 213
8.933804512023926 -1.3747100830078125 15.809074401855469 20 68 116
8.84300708770752 -1.035135269165039 15.948561668395996 4 77 135
9.732009887695312 -2.662973403930664 16.540546417236328 148 157 170
8.88637638092041 0.060180701315402985 17.991943359375 108 120 126
9.628240585327148 -2.6225922107696533 16.746801376342773 24 33 42
9.628240585327148 -2.6225922107696533 16.746801376342773 24 33 42
9.026652336120605 0.21519002318382263 17.904224395751953 41 52 60
9.590582847595215 -2.5157828330993652 16.8375301361084 33 39 50
9.015183448791504 0.07121804356575012 17.976831436157227 0 6 13
9.06241226196289 -0.4677700698375702 17.80362319946289 5 16 24
9.548696517944336 -2.3700778484344482 16.97063636779785 135 151 158
9.015122413635254 0.0712309181690216 17.97687530517578 0 6 13
9.124791145324707 -0.8913763165473938 17.69710922241211 63 72 81
9.511470794677734 -2.427757501602173 17.037582397460938 33 41 48
9.511470794677734 -2.427757501602173 17.037582397460938 33 41 48
9.541167259216309 -2.4911558628082275 17.011884689331055 140 152 158
8.907851219177246 -0.14422239363193512 18.11348533630371 9 16 19
9.720495223999023 -2.9884467124938965 16.73574447631836 122 134 140
9.034595489501953 -0.4005158245563507 17.97496795654297 6 10 15
9.073039054870605 -0.5487673878669739 17.985610961914062 90 100 107
9.400307655334473 -1.9242969751358032 17.32296371459961 130 142 148
9.377656936645508 -1.1197632551193237 17.511159896850586 179 188 197
9.377656936645508 -1.1197632551193237 17.511159896850586 179 188 197
9.37764835357666 -1.119761347770691 17.511165618896484 179 188 197
9.178777694702148 -1.8879058361053467 17.520732879638672 126 137 141
9.451879501342773 -2.0631086826324463 17.327547073364258 19 31 35
9.295373916625977 -1.146932601928711 17.671039581298828 126 136 143
9.072728157043457 -0.5486935377120972 17.98584747314453 90 100 107
9.463324546813965 -2.528317928314209 17.20076560974121 118 130 136
9.463324546813965 -2.528317928314209 17.20076560974121 118 130 136
9.246671676635742 -1.3486016988754272 17.668758392333984 163 174 178
9.180803298950195 -1.8873835802078247 17.520524978637695 126 137 141
9.451870918273926 -2.063107967376709 17.327552795410156 19 31 35
9.451870918273926 -2.063107967376709 17.327552795410156 19 31 35
9.250141143798828 -1.7660231590270996 17.56614112854004 43 52 56
9.53420639038086 -2.548872470855713 17.2198429107666 137 155 162
9.53420639038086 -2.548872470855713 17.2198429107666 137 155 162
9.29804515838623 -1.0836349725723267 17.819841384887695 15 22 25
8.954792022705078 -0.5590096116065979 18.24199676513672 2 4 4
9.605323791503906 -3.0291247367858887 17.08161735534668 38 44 51
9.550440788269043 -2.813749313354492 17.242210388183594 145 157 163
9.550440788269043 -2.813749313354492 17.242210388183594 145 157 163
9.371493339538574 -2.1031885147094727 17.59169578552246 122 137 140
10.392083168029785 -3.566107749938965 16.525182723999023 41 53 59
9.014110565185547 -1.093277096748352 18.1644287109375 71 84 86
9.25917911529541 -2.019821882247925 17.723493576049805 153 168 171
9.530196189880371 -2.604391098022461 17.367443084716797 161 176 179
9.530196189880371 -2.604391098022461 17.367443084716797 161 176 179
9.124687194824219 -0.6747399568557739 18.19635581970215 83 87 88
9.124687194824219 -0.6747399568557739 18.19635581970215 83 87 88
9.248929977416992 -1.8063305616378784 17.83209800720215 114 123 127
9.645743370056152 -3.539829730987549 17.069486618041992 50 52 60
9.597695350646973 -3.068281888961792 17.227590560913086 49 55 60
9.469074249267578 -2.78147029876709 17.40565299987793 52 60 67
9.27586555480957 -1.9787564277648926 17.795452117919922 42 48 53
8.918267250061035 -0.6785852313041687 18.427383422851562 43 47 52
9.000792503356934 -1.0066678524017334 18.282390594482422 159 174 176
9.000792503356934 -1.0066678524017334 18.282390594482422 159 174 176
9.477399826049805 -2.7398533821105957 17.479400634765625 69 79 86
9.694218635559082 -3.4883880615234375 17.07632827758789 52 61 65
10.392081260681152 -3.5661072731018066 16.525182723999023 41 53 59
10.392081260681152 -3.5661072731018066 16.525182723999023 41 53 59
9.682621955871582 -3.4222912788391113 17.134410858154297 52 58 63
9.443204879760742 -2.0192975997924805 17.7407169342041 57 63 68
9.443204879760742 -2.0192975997924805 17.7407169342041 57 63 68
8.981380462646484 -0.9878060817718506 18.37665367126465 12 17 18
9.664594650268555 -3.511383056640625 17.158315658569336 120 141 143
9.361254692077637 -2.5246245861053467 17.677963256835938 134 154 155
9.361254692077637 -2.5246245861053467 17.677963256835938 134 154 155
9.401284217834473 -2.703202724456787 17.60430145263672 51 60 64
9.201224327087402 -2.120260000228882 17.935449600219727 40 44 49
9.648383140563965 -3.593964099884033 17.193132400512695 52 66 72
8.937581062316895 -1.0938695669174194 18.441865921020508 29 32 37
8.937581062316895 -1.0938695669174194 18.441865921020508 29 32 37
9.189169883728027 -1.5154471397399902 18.07597541809082 50 61 65
8.967994689941406 -1.9756659269332886 18.204631805419922 52 65 67
8.967994689941406 -1.9756659269332886 18.204631805419922 52 65 67
9.198725700378418 -2.1189322471618652 17.936140060424805 40 44 49
9.016369819641113 -1.3965725898742676 18.33735466003418 25 34 37
8.999853134155273 -1.4416812658309937 18.347444534301758 160 172 176
8.999853134155273 -1.4416812658309937 18.347444534301758 160 172 176
9.592558860778809 -3.5482730865478516 17.30701446533203 143 158 161
9.307514190673828 -2.7877755165100098 17.72527313232422 71 86 89
8.316507339477539 -2.1799256801605225 18.712858200073242 123 134 138
9.148795127868652 -2.211700916290283 18.09054183959961 112 123 127
9.306915283203125 -2.7538034915924072 17.8275203704834 61 64 69
8.946979522705078 -1.5172785520553589 18.463645935058594 50 54 59
9.265680313110352 -2.5746238231658936 17.892566680908203 74 86 90
9.121079444885254 -2.3648340702056885 18.137798309326172 75 88 90
9.115039825439453 -2.249795436859131 18.178678512573242 127 144 147
8.8634614944458 -1.4857394695281982 18.59623908996582 123 140 143
9.527854919433594 -3.5648205280303955 17.491470336914062 64 72 71
9.163289070129395 -2.1425535678863525 18.190458297729492 120 131 135
8.927632331848145 -1.5973012447357178 18.54248046875 164 176 178
8.93658447265625 -1.9911988973617554 18.46405029296875 56 68 70
9.14501667022705 -3.0079596042633057 18.09148406982422 139 154 157
8.90881061553955 -2.2097935676574707 18.542522430419922 107 119 121
8.90881061553955 -2.2097935676574707 18.542522430419922 107 119 121
9.246623992919922 -2.4794106483459473 18.240827560424805 64 72 72
13.646629333496094 -3.3296761512756348 10.000481605529785 192 204 208
14.537201881408691 -2.1007626056671143 10.466029167175293 211 216 207
14.848280906677246 -3.172795295715332 10.094731330871582 238 255 250
14.691046714782715 -2.145101547241211 10.407989501953125 161 143 112
14.672788619995117 -2.089205026626587 10.455072402954102 255 255 248
14.704032897949219 -2.0779688358306885 10.456523895263672 11 1 0
14.664803504943848 -1.9810259342193604 10.496734619140625 113 59 6
14.664803504943848 -1.9810259342193604 10.496734619140625 113 59 6
14.876919746398926 -2.7416069507598877 10.244213104248047 240 255 255
14.814690589904785 -2.0972225666046143 10.446253776550293 243 247 242
14.814690589904785 -2.0972225666046143 10.446253776550293 243 247 242
14.831340789794922 -1.9710315465927124 10.472944259643555 236 231 210
14.761865615844727 -1.4655966758728027 10.639930725097656 14 32 49
14.739916801452637 -1.4122902154922485 10.653364181518555 18 37 58
15.038675308227539 -3.5458948612213135 9.994836807250977 129 178 210
15.038675308227539 -3.5458948612213135 9.994836807250977 129 178 210
14.86951732635498 -2.1326279640197754 10.423548698425293 104 89 70
14.855125427246094 -1.4690386056900024 10.637443542480469 27 57 84
14.855125427246094 -1.4690386056900024 10.637443542480469 27 57 84
14.872573852539062 -1.8141822814941406 10.546055793762207 91 150 206
14.860578536987305 -1.4037601947784424 10.667327880859375 203 227 247
14.930458068847656 -2.0733492374420166 10.455756187438965 255 254 247
14.930458068847656 -2.0733492374420166 10.455756187438965 255 254 247
14.95526123046875 -2.0493576526641846 10.451780319213867 129 68 4
14.865877151489258 -1.4425501823425293 10.656567573547363 0 10 36
14.954383850097656 -2.7983739376068115 10.26252269744873 7 95 165
14.954383850097656 -2.7983739376068115 10.26252269744873 7 95 165
14.925529479980469 -2.13020658493042 10.471656799316406 255 255 237
14.945592880249023 -1.9901264905929565 10.485939979553223 254 245 241
15.058855056762695 -3.1757357120513916 10.122284889221191 233 255 255
14.905952453613281 -1.4199137687683105 10.642160415649414 203 227 247
14.905954360961914 -1.419914722442627 10.642158508300781 203 227 247
14.985651016235352 -2.077641010284424 10.462204933166504 255 248 213
14.970253944396973 -2.104541063308716 10.464832305908203 249 254 252
14.993978500366211 -1.4478201866149902 10.629237174987793 14 31 50
14.993978500366211 -1.4478201866149902 10.629237174987793 14 31 50
14.991127967834473 -2.0028696060180664 10.494601249694824 94 55 16
15.090944290161133 -2.133370876312256 10.432219505310059 250 255 251
15.090944290161133 -2.133370876312256 10.432219505310059 250 255 251
15.090944290161133 -2.133370876312256 10.432219505310059 250 255 251
15.090936660766602 -2.133368968963623 10.432222366333008 250 255 251
15.043105125427246 -1.4277493953704834 10.677023887634277 220 241 255
15.097940444946289 -2.069512128829956 10.483912467956543 132 83 15
15.156256675720215 -2.7429561614990234 10.286909103393555 27 89 149
15.084836959838867 -1.4784423112869263 10.667684555053711 37 55 78
15.119452476501465 -2.1242270469665527 10.492140769958496 248 254 255
15.112569808959961 -2.1653029918670654 10.47490119934082 127 86 37
15.112569808959961 -2.1653029918670654 10.47490119934082 127 86 37
15.098236083984375 -2.8657753467559814 10.307317733764648 14 102 172
15.117166519165039 -1.981202244758606 10.541571617126465 143 112 79
15.135193824768066 -1.457572340965271 10.680598258972168 0 16 34
15.110687255859375 -1.5244767665863037 10.68262004852295 113 136 158
15.110687255859375 -1.5244767665863037 10.68262004852295 113 136 158
15.2130126953125 -2.7690529823303223 10.303318977355957 226 244 255
15.264633178710938 -2.75060772895813 10.322132110595703 102 147 174
15.264633178710938 -2.75060772895813 10.322132110595703 102 147 174
15.160923957824707 -1.9049351215362549 10.556588172912598 47 56 90
15.220067024230957 -1.4623407125473022 10.69264030456543 13 32 53
15.220067024230957 -1.4623407125473022 10.69264030456543 13 32 53
15.243525505065918 -1.800107717514038 10.598611831665039 30 29 39
15.235191345214844 -1.4695042371749878 10.681192398071289 13 32 53
15.246329307556152 -2.1399433612823486 10.523429870605469 120 58 18
15.246329307556152 -2.1399433612823486 10.523429870605469 120 58 18
15.369163513183594 -3.2647783756256104 10.166497230529785 167 215 255
15.305021286010742 -2.5127675533294678 10.414595603942871 221 249 250
15.266919136047363 -1.4702262878417969 10.717888832092285 26 43 69
15.266919136047363 -1.4702262878417969 10.717888832092285 26 43 69
15.261982917785645 -1.4989047050476074 10.71878719329834 0 0 8
15.261982917785645 -1.4989047050476074 10.71878719329834 0 0 8
15.28476333618164 -2.0791077613830566 10.552146911621094 116 68 2
15.389108657836914 -3.2045469284057617 10.214062690734863 10 115 182
15.39451789855957 -3.0774688720703125 10.253632545471191 44 121 183
15.356379508972168 -2.944425344467163 10.305599212646484 14 96 151
15.38220500946045 -2.4864118099212646 10.43763542175293 32 87 130
15.394014358520508 -3.126380443572998 10.244240760803223 182 246 255
15.365975379943848 -1.5476791858673096 10.691551208496094 234 249 255
15.3558931350708 -2.764362096786499 10.34949779510498 200 227 237
15.38475227355957 -2.5406887531280518 10.419710159301758 54 116 164
15.331260681152344 -1.5030547380447388 10.731575965881348 203 220 233
15.398287773132324 -3.165348529815674 10.248741149902344 37 113 172
15.421331405639648 -3.2373552322387695 10.21931266784668 20 79 135
