ply
format ascii 1.0
element vertex 71
property float x
property float y
property float z
property uchar red
property uchar green
property uchar blue
end_header
3.12644362449646 3.925870418548584 3.91015362739563 79 74 76
3.12644362449646 3.925870418548584 3.91015362739563 79 74 76
3.1943724155426025 3.952540636062622 3.9647586345672607 236 254 253
3.265770435333252 3.96574068069458 4.011960029602051 64 50 51
3.26320743560791 3.9727237224578857 3.9767227172851562 170 191 199
3.3002471923828125 3.976909637451172 4.014313697814941 238 255 255
3.2472028732299805 3.9257326126098633 3.8447582721710205 163 176 178
3.3221781253814697 4.023654937744141 3.893109083175659 103 99 94
3.3857223987579346 3.9505674839019775 3.899688720703125 218 239 244
3.3940513134002686 3.864223003387451 3.8777999877929688 231 253 255
3.4234631061553955 3.929495096206665 3.8563406467437744 197 224 234
3.0345585346221924 3.975045919418335 3.317774534225464 42 53 75
3.5453927516937256 3.859164237976074 3.8600964546203613 55 154 74
3.54209041595459 3.898505210876465 3.825648307800293 24 71 22
3.78464674949646 3.8677237033843994 4.082797050476074 0 27 87
3.591128349304199 3.8551952838897705 3.8473267555236816 56 73 46
3.9064810276031494 3.900219202041626 4.141369342803955 168 199 198
4.058862686157227 3.906582832336426 4.302600383758545 14 124 36
3.644350290298462 3.887598752975464 3.8072221279144287 79 159 92
4.2195515632629395 3.911827802658081 4.405829906463623 100 147 101
4.2195515632629395 3.911827802658081 4.405829906463623 100 147 101
4.174039840698242 3.9212281703948975 4.352222919464111 62 115 58
4.24058198928833 3.901413917541504 4.404356479644775 198 220 208
4.2072367668151855 3.921180009841919 4.34633731842041 74 115 77
3.7866711616516113 3.8966195583343506 3.906921625137329 88 138 188
3.3732364177703857 3.8959598541259766 3.475436210632324 100 97 93
4.015250205993652 3.8818602561950684 4.1145477294921875 7 1 2
3.1987316608428955 3.9818577766418457 3.2591662406921387 82 84 84
3.7979395389556885 3.8603179454803467 3.8247873783111572 51 128 60
3.4663476943969727 3.833672046661377 3.4603841304779053 37 7 2
3.20689058303833 2.516080856323242 3.129258632659912 93 76 59
3.20689058303833 2.516080856323242 3.129258632659912 93 76 59
3.6310272216796875 3.7296743392944336 3.5084383487701416 29 26 28
3.250781536102295 2.5252327919006348 3.1333866119384766 84 66 49
4.477176189422607 3.8766074180603027 4.0966596603393555 65 50 41
4.478992938995361 3.8767151832580566 4.097769737243652 65 50 41
4.430218696594238 3.86030912399292 4.023655414581299 232 254 255
3.484147787094116 2.534637212753296 3.117788076400757 43 20 4
3.4823529720306396 2.5954487323760986 3.106245994567871 6 1 0
3.496046304702759 2.6018893718719482 3.0988376140594482 154 146 133
4.559645175933838 2.5961594581604004 3.0874600410461426 189 191 191
4.9167656898498535 2.5561420917510986 3.0470659732818604 75 65 55
4.980504035949707 2.542987823486328 3.0519464015960693 18 6 6
4.980504035949707 2.542987823486328 3.0519464015960693 18 6 6
-1.6953608989715576 1.4394478797912598 4.377860069274902 7 4 0
-1.6372594833374023 1.373653531074524 4.387825965881348 45 38 41
-1.626286268234253 1.3375235795974731 4.411487102508545 63 61 60
-1.6039642095565796 1.3743914365768433 4.408293724060059 16 12 11
-1.584193468093872 1.400661587715149 4.4189229011535645 152 157 158
-1.3270018100738525 1.3717260360717773 4.57531213760376 49 39 39
-1.2620350122451782 1.3606435060501099 4.581018924713135 30 20 20
-1.2426484823226929 1.4214911460876465 4.592837333679199 40 21 18
-1.2357927560806274 1.3852262496948242 4.574692249298096 121 114 111
22.921432495117188 25.483797073364258 24.626155853271484 108 106 105
21.93501853942871 24.338178634643555 23.42544174194336 217 245 246
30.008277893066406 31.437559127807617 30.754127502441406 111 99 89
32.445987701416016 33.48978042602539 32.35417556762695 229 251 253
37.083133697509766 38.549354553222656 36.298587799072266 184 205 213
35.172119140625 35.60224151611328 34.42438888549805 122 109 101
26.16337776184082 32.09000015258789 23.580795288085938 141 153 153
29.74120330810547 35.975379943847656 26.535480499267578 50 61 83
25.888641357421875 32.543968200683594 22.82151985168457 80 63 46
30.823915481567383 36.64208221435547 27.241165161132812 160 174 193
30.57708740234375 35.35719680786133 26.918991088867188 99 80 75
30.57708740234375 35.35719680786133 26.918991088867188 99 80 75
32.53106689453125 37.302616119384766 28.432209014892578 164 138 122
35.734230041503906 43.02702331542969 30.561513900756836 46 40 35
34.604881286621094 40.58098602294922 29.480833053588867 11 13 23
36.13549041748047 42.71183776855469 30.347749710083008 71 72 70
31.479907989501953 36.4197998046875 26.671649932861328 16 15 19
29.971588134765625 33.609275817871094 24.721359252929688 112 122 122
