ply
format ascii 1.0
element vertex 196
property float x
property float y
property float z
property uchar red
property uchar green
property uchar blue
end_header
3.70979905128479 4.663418292999268 4.642131328582764 79 74 76
3.70979905128479 4.663418292999268 4.642131328582764 79 74 76
3.71020245552063 4.663618564605713 4.617043495178223 230 255 255
3.8070216178894043 4.7151780128479 4.727312088012695 236 254 253
3.6616146564483643 4.625635623931885 4.54136323928833 83 78 77
3.68082594871521 4.614030838012695 4.521849155426025 198 223 225
3.7196261882781982 4.6288557052612305 4.554633140563965 144 166 172
3.835392475128174 4.6986308097839355 4.6943864822387695 217 238 246
3.896705150604248 4.7482075691223145 4.75069522857666 170 191 199
3.9510908126831055 4.765037536621094 4.807738304138184 238 255 255
3.8624539375305176 4.689473628997803 4.610136032104492 144 156 158
3.819815158843994 4.689837455749512 4.5558390617370605 103 99 94
3.9905054569244385 4.683985710144043 4.731141567230225 98 83 80
3.846703052520752 4.6548991203308105 4.556564807891846 163 176 178
4.040375232696533 4.617489337921143 4.662807464599609 90 79 75
4.031921863555908 4.708065986633301 4.645506858825684 218 239 244
4.03025484085083 4.591150760650635 4.605788707733154 231 253 255
4.068619251251221 4.673260688781738 4.584457874298096 197 224 234
3.340517282485962 4.609926700592041 3.7014384269714355 98 90 83
3.423797607421875 4.5692362785339355 3.7869386672973633 100 112 114
4.471074104309082 4.578096866607666 4.899766445159912 61 114 165
4.215134143829346 4.5899577140808105 4.590003967285156 55 154 74
3.384312629699707 4.601377487182617 3.682591438293457 56 39 23
4.208141326904297 4.633942604064941 4.545978546142578 24 71 22
4.563319206237793 4.6628031730651855 4.922543048858643 0 27 87
3.645082473754883 4.595549583435059 3.9158408641815186 72 52 45
3.642402172088623 4.568082809448242 3.9117753505706787 143 112 89
4.269518852233887 4.585043907165527 4.57473611831665 56 73 46
4.192471981048584 4.665164470672607 4.490877151489258 81 57 37
3.482334852218628 4.587570667266846 3.718435287475586 49 31 18
3.725006580352783 4.549522399902344 3.966205358505249 69 26 5
3.725006580352783 4.549522399902344 3.966205358505249 69 26 5
4.707554340362549 4.740999698638916 5.011638641357422 76 120 167
4.295651435852051 4.559798717498779 4.574010372161865 113 109 104
4.923720836639404 4.7409281730651855 5.226434230804443 16 127 35
4.734649658203125 4.725703716278076 5.018834114074707 168 199 198
4.96842622756958 4.778883457183838 5.265657424926758 14 124 36
3.6045475006103516 4.617294788360596 3.8172261714935303 24 35 49
4.74611234664917 4.71305513381958 4.986103057861328 22 20 19
4.331818103790283 4.622777938842773 4.526123046875 79 159 92
5.2017998695373535 4.8178839683532715 5.429878234863281 100 147 101
5.2017998695373535 4.8178839683532715 5.429878234863281 100 147 101
5.130771160125732 4.8161492347717285 5.348448753356934 62 115 58
5.227297306060791 4.804502964019775 5.4275641441345215 198 220 208
4.816139221191406 4.8400044441223145 4.980489730834961 119 182 243
5.172025680541992 4.816422939300537 5.3416643142700195 74 115 77
3.9369897842407227 4.551793098449707 4.058182239532471 100 97 93
3.558695077896118 4.471242427825928 3.66162371635437 11 13 13
3.9731760025024414 4.594808578491211 4.088603496551514 98 95 91
3.2915923595428467 4.580759048461914 3.383226156234741 57 40 19
3.2915923595428467 4.580759048461914 3.383226156234741 57 40 19
4.865023612976074 4.7016072273254395 4.984687805175781 7 1 2
3.504054307937622 4.5281548500061035 3.5872771739959717 93 84 80
4.444344997406006 4.636870861053467 4.538229942321777 117 93 81
4.057544231414795 4.468367576599121 4.135732173919678 68 27 2
3.3780159950256348 2.7800040245056152 3.439774751663208 101 80 59
4.81519079208374 4.77905797958374 4.900046348571777 96 155 217
4.837381839752197 4.798221588134766 4.918376445770264 100 159 221
3.396925687789917 2.7778384685516357 3.4376425743103027 92 73 52
3.709259033203125 4.567102909088135 3.7539987564086914 11 5 6
4.525737762451172 4.6008172035217285 4.558008193969727 51 128 60
3.4628968238830566 2.7830522060394287 3.4631571769714355 76 54 36
4.0447678565979 4.477118492126465 4.0392584800720215 37 7 2
3.4977304935455322 2.790759563446045 3.4619975090026855 111 89 71
3.506693124771118 4.457327842712402 3.4408152103424072 72 56 37
3.548025131225586 2.7844998836517334 3.472540855407715 52 33 12
3.56648850440979 2.7973320484161377 3.479912519454956 93 76 59
3.56648850440979 2.7973320484161377 3.479912519454956 93 76 59
4.247289180755615 4.364659309387207 4.1046142578125 29 26 28
3.619720220565796 2.8109042644500732 3.4887492656707764 84 66 49
3.7441210746765137 2.8521132469177246 3.538769483566284 41 24 7
3.732358694076538 2.826036214828491 3.4989421367645264 73 53 36
5.16107702255249 4.706380367279053 4.8065972328186035 132 150 157
3.776489019393921 2.8217039108276367 3.514141798019409 83 63 46
3.816960096359253 2.8285419940948486 3.5120346546173096 42 23 8
5.126402854919434 4.5918869972229 4.705711841583252 83 73 73
5.455636024475098 4.720459938049316 4.990932464599609 65 50 41
5.458397388458252 4.721058368682861 4.992776393890381 65 50 41
5.376125335693359 4.681721210479736 4.881889343261719 232 254 255
3.862475872039795 2.85197114944458 3.499969482421875 78 58 40
3.838653087615967 2.8925657272338867 3.46372389793396 15 6 3
3.857633113861084 2.8859434127807617 3.462430477142334 23 2 0
3.957637071609497 2.8426740169525146 3.5312459468841553 107 89 72
3.974175214767456 2.854769229888916 3.5295066833496094 86 68 51
3.9158222675323486 2.913562774658203 3.470745325088501 154 146 133
3.9729115962982178 2.859997510910034 3.5110127925872803 41 21 4
3.934264898300171 2.9170408248901367 3.4725985527038574 75 63 51
3.957048177719116 2.9249608516693115 3.4796040058135986 60 48 36
4.0784010887146 2.8503684997558594 3.5424325466156006 84 67 48
4.325939655303955 2.9001924991607666 3.5493268966674805 35 18 1
5.225978851318359 2.618313789367676 3.7110283374786377 112 103 93
5.115423202514648 2.921461582183838 3.577920913696289 43 23 5
5.222271919250488 2.972357749938965 3.5359580516815186 189 191 191
5.225037097930908 2.976640224456787 3.532301902770996 24 12 0
5.5369553565979 2.88627028465271 3.603536605834961 90 76 64
5.617311000823975 2.948521852493286 3.516509532928467 61 52 39
5.666938304901123 2.9452576637268066 3.5118513107299805 75 65 55
5.799635887145996 2.8849456310272217 3.554504156112671 46 21 11
5.747451305389404 2.933659553527832 3.5217957496643066 18 6 6
5.747451305389404 2.933659553527832 3.5217957496643066 18 6 6
5.752432823181152 2.9464690685272217 3.5131208896636963 75 60 51
5.93311882019043 2.9580070972442627 3.509662389755249 33 13 2
6.068137168884277 2.8473563194274902 3.5414936542510986 85 69 57
6.040183067321777 2.9163126945495605 3.484689712524414 73 68 59
-1.3625670671463013 3.594456911087036 3.694627046585083 82 70 60
-1.3569271564483643 3.5850868225097656 3.7242023944854736 32 19 11
-1.3023757934570312 3.569603443145752 3.690302610397339 104 99 96
-0.8332292437553406 3.628927707672119 3.930723190307617 33 23 16
1.194334864616394 3.8271398544311523 4.129757404327393 66 53 39
2.224623203277588 5.579428672790527 5.9160871505737305 75 59 47
2.333347797393799 5.593875408172607 5.955638408660889 61 49 37
2.4976766109466553 5.738712787628174 6.075772762298584 86 73 59
2.546461343765259 5.771731376647949 6.11656379699707 88 72 59
2.8767383098602295 5.968688488006592 6.307162284851074 94 81 67
3.457441568374634 6.320921421051025 6.69236946105957 87 71 58
24.605545043945312 46.19178009033203 40.067718505859375 217 245 246
24.605545043945312 46.19178009033203 40.067718505859375 217 245 246
2.7869794368743896 3.5918776988983154 3.9888055324554443 57 39 22
3.6617889404296875 4.312905311584473 4.721220970153809 80 73 56
6.680698394775391 8.047466278076172 8.458819389343262 133 121 109
6.948093414306641 8.000618934631348 8.667433738708496 88 70 47
6.990192890167236 7.981870174407959 8.649651527404785 98 77 56
6.967742443084717 8.037310600280762 8.469986915588379 18 2 0
7.573862552642822 8.472555160522461 8.8886079788208 77 64 48
7.743320465087891 8.379201889038086 9.085125923156738 92 73 58
8.5914888381958 8.772503852844238 9.50365924835205 107 87 70
8.816092491149902 8.884546279907227 9.621370315551758 110 88 70
21.63421058654785 22.32107162475586 23.049596786499023 86 69 53
39.207088470458984 40.098201751708984 41.21428680419922 77 61 48
9.494190216064453 9.165748596191406 9.952178001403809 122 105 89
6.462625980377197 6.2129316329956055 6.764514446258545 100 80 63
9.780208587646484 9.37425422668457 10.153359413146973 90 72 55
9.917906761169434 9.710272789001465 10.14826774597168 86 70 57
14.265684127807617 13.544622421264648 14.379762649536133 82 66 54
10.308974266052246 9.643798828125 10.390641212463379 112 91 76
10.56976318359375 9.717477798461914 10.558204650878906 64 50 38
10.745539665222168 9.8160400390625 10.663596153259277 104 88 75
10.793946266174316 9.864482879638672 10.684652328491211 100 83 67
10.937981605529785 9.935697555541992 10.765381813049316 61 48 32
10.97880744934082 10.253945350646973 10.698722839355469 94 77 61
10.938517570495605 9.905366897583008 10.736028671264648 117 104 90
11.283835411071777 10.04401969909668 10.939821243286133 132 119 105
11.479998588562012 10.139671325683594 11.037452697753906 124 108 95
11.843388557434082 10.348760604858398 11.222426414489746 57 39 26
11.964058876037598 10.400394439697266 11.313587188720703 118 108 91
12.207496643066406 10.491734504699707 11.4783935546875 76 64 52
12.206546783447266 10.510878562927246 11.460868835449219 138 124 112
14.27604866027832 11.563291549682617 12.556554794311523 121 105 92
14.831371307373047 11.805495262145996 12.859492301940918 106 94 82
15.755494117736816 12.241137504577637 13.359818458557129 111 97 85
15.849434852600098 12.270854949951172 13.379247665405273 111 97 85
16.073482513427734 12.437153816223145 13.52099895477295 107 94 80
15.918436050415039 12.209380149841309 13.347783088684082 108 95 81
16.291624069213867 12.911150932312012 13.421882629394531 84 72 60
16.295011520385742 12.419734001159668 13.566716194152832 107 91 78
16.97001075744629 13.080720901489258 13.700711250305176 35 20 18
17.24422836303711 13.191919326782227 13.814367294311523 29 8 3
18.184289932250977 13.397159576416016 14.544954299926758 101 85 73
18.729644775390625 13.596076011657715 14.867761611938477 105 93 81
31.395105361938477 23.326791763305664 24.071796417236328 81 67 55
6.507508754730225 4.714740753173828 5.206170558929443 57 36 21
20.435617446899414 14.446828842163086 15.507539749145508 62 45 36
-0.6926960349082947 3.56986665725708 4.436723709106445 66 50 37
1.920506238937378 4.307432651519775 5.979874134063721 57 46 38
2.253267288208008 2.6444554328918457 3.5101847648620605 125 108 89
2.6077873706817627 2.640117883682251 3.507746696472168 94 78 59
2.6077873706817627 2.640117883682251 3.507746696472168 94 78 59
2.621025562286377 2.639936923980713 3.5024147033691406 119 103 84
2.6299245357513428 2.6455063819885254 3.4882538318634033 42 26 7
2.6700003147125244 2.6406850814819336 3.5031309127807617 106 92 73
2.6700003147125244 2.6406850814819336 3.5031309127807617 106 92 73
2.7213616371154785 2.641395092010498 3.505451202392578 115 98 81
2.783984661102295 2.62308406829834 3.5026092529296875 99 82 61
2.85429048538208 2.621962785720825 3.494920492172241 105 85 67
2.888204336166382 2.6203532218933105 3.4965951442718506 91 72 51
3.054532289505005 2.6118266582489014 3.480562686920166 91 71 54
3.1722524166107178 2.5996150970458984 3.4695422649383545 87 73 55
7.334236145019531 4.984786510467529 6.0005083084106445 51 33 16
3.260087251663208 2.5926568508148193 3.457404613494873 88 71 55
10.95876407623291 7.020667552947998 8.183300971984863 56 39 23
3.3640527725219727 2.575383424758911 3.448214530944824 112 91 76
3.8210365772247314 2.491947889328003 3.300372362136841 61 43 30
2.045360803604126 1.540452003479004 2.306609869003296 44 26 9
5.414122581481934 2.5263705253601074 3.8491439819335938 129 114 105
4.009496212005615 2.258150100708008 3.043851613998413 120 111 98
4.4237542152404785 2.4654223918914795 3.185088634490967 233 245 251
3.0412731170654297 1.754102349281311 2.5177688598632812 105 97 84
5.84238338470459 2.3699638843536377 3.663567066192627 104 94 84
4.801285266876221 2.3854763507843018 3.1117496490478516 168 169 165
3.146536350250244 1.6618937253952026 2.420168876647949 112 103 93
4.943552494049072 2.33968186378479 3.056169033050537 82 76 69
5.596817970275879 2.1717588901519775 2.9737181663513184 51 29 18
5.685829162597656 2.1929259300231934 2.9008734226226807 28 25 20
5.841743469238281 2.125466823577881 2.9134185314178467 40 20 9
6.058210372924805 2.161790132522583 2.9528255462646484 41 22 7
0.5345191359519958 1.1854567527770996 1.4762998819351196 114 100 88
