ply
        format ascii 1.0
        element vertex 87735
        property float x
        property float y
        property float z
        property uchar blue
        property uchar green
        property uchar red
        end_header
-261.874652 1488.531113 4714.294434 58 74 119
-9.650165 1306.135464 3565.627289 40 45 66
-1620.241547 3421.075821 12086.988831 195 211 213
-1679.207611 3293.464661 12671.728516 20 23 26
-1760.886383 3146.663857 13103.804016 213 221 226
-1722.157478 3106.244278 12979.724121 206 214 217
-204.956341 1470.825481 4778.281784 49 63 100
-2644.298172 6306.774902 18908.570862 13 24 33
-2644.298172 6306.774902 18908.570862 13 24 33
109.993792 1309.909344 3227.961731 155 167 204
51.653749 1262.022781 3521.461487 44 57 83
-2407.966423 -287.722802 16049.723816 12 12 17
-181.534505 1520.924473 4937.471390 41 56 105
127.213883 1332.544899 3233.287048 180 185 229
-1589.316940 3189.194107 13536.280823 206 213 216
-631.192541 2604.868317 8049.051666 6 6 12
21.912766 -506.550217 3281.770706 61 77 92
-1627.828217 5040.196228 15397.705078 4 5 5
-1040.309525 2922.186470 11085.349274 199 206 209
-39.732197 1611.436653 4603.049850 2 3 7
852.731800 200.425696 -1322.804070 40 42 47
-663.610363 3032.188416 9308.278656 69 67 67
-1095.948219 2164.961433 11827.262878 38 41 46
-1095.948219 2164.961433 11827.262878 38 41 46
-1146.905041 1978.966141 12092.066193 32 37 42
-1258.552551 1727.365112 12698.997498 29 32 36
533.622265 -473.914099 325.129128 40 45 48
-1385.632229 499.717045 13026.095581 34 36 41
-1385.632229 499.717045 13026.095581 34 36 41
538.507652 -429.872847 503.901815 35 37 40
538.507652 -429.872847 503.901815 35 37 40
542.199326 -448.832703 392.921615 36 41 45
-1158.573627 1941.271973 12393.811798 38 40 49
-810.389233 3000.062180 10790.432739 199 204 206
-1315.915394 593.369532 12896.553040 30 33 38
-1291.090012 746.262932 12825.199890 33 35 42
-865.401936 2769.211388 11140.385437 214 217 217
-1564.838505 -591.962719 14162.322998 16 17 23
538.763857 -431.356764 497.529554 42 47 50
811.774158 139.583015 -1303.433704 35 39 45
-897.177792 2167.968750 11282.039642 224 231 230
-897.177792 2167.968750 11282.039642 224 231 230
792.349529 16.884558 -1235.032177 106 110 123
-1127.027607 606.810141 12419.808197 238 243 245
-546.500015 2438.851929 9406.978607 211 215 216
-1364.864159 -316.133881 13797.241211 204 213 220
-901.619339 1784.220314 11678.067780 53 54 68
805.182266 187.861431 -1354.797840 133 141 155
-1095.390892 94.098270 12271.221161 23 29 36
800.664425 164.665043 -1338.961506 117 119 130
528.053093 -447.499704 438.021040 40 41 43
528.053093 -447.499704 438.021040 40 41 43
-726.807499 2190.395355 10830.509949 225 229 234
-828.346920 1760.451317 11393.859100 231 235 242
-828.346920 1760.451317 11393.859100 231 235 242
802.259350 184.103370 -1373.219872 34 34 46
-660.065222 2219.827461 10751.233673 237 241 246
-660.065222 2219.827461 10751.233673 237 241 246
-900.913334 734.361649 11854.538727 234 241 247
-900.913334 734.361649 11854.538727 234 241 247
-908.690739 442.830181 11790.023041 33 35 39
-571.616411 2301.415634 10414.495850 32 36 40
-707.153368 1361.171818 11044.715881 28 32 37
775.104284 131.931412 -1326.603699 162 184 201
-506.100845 2346.534157 10296.823120 29 34 38
-504.859161 2095.221519 10182.004547 28 30 41
-449.373960 2395.909309 9987.952423 42 47 50
-449.373960 2395.909309 9987.952423 42 47 50
774.085283 164.772820 -1368.625164 153 177 193
-661.828279 1609.646416 11287.475586 44 49 52
151.727533 1502.818298 4590.583801 53 49 52
-2215.870285 -1951.647568 21927.304077 164 184 195
-781.074715 854.764366 11939.711761 142 150 158
-459.222460 2167.623711 10151.400757 229 233 237
-2171.165276 -1683.561516 22054.785156 165 185 194
-428.409863 2310.834312 10189.785767 31 35 40
766.956091 186.023855 -1384.104061 162 182 200
-1798.663330 -1472.497272 19520.687866 65 82 91
-1798.663330 -1472.497272 19520.687866 65 82 91
-1902.591133 -2027.784729 20142.703247 166 186 197
-1902.591133 -2027.784729 20142.703247 166 186 197
-479.271507 1623.411751 10398.229980 35 41 51
-1878.732491 -1957.829666 20268.373108 61 82 93
-671.709681 240.032268 11255.744934 30 37 45
434.606600 -215.095973 1425.442123 34 37 42
-529.618597 1083.999920 10795.867920 35 39 44
-465.363026 1330.483913 10393.590546 36 41 48
-465.363026 1330.483913 10393.590546 36 41 48
-567.300797 615.266705 10852.146149 207 218 226
-1900.258255 -2457.266426 20856.333923 66 84 95
-354.821396 1777.234268 10107.154846 238 243 246
-412.046289 1321.278763 10362.824249 227 235 240
-417.239666 1276.514816 10390.554810 36 39 43
229.596901 1632.393265 4559.647751 38 34 38
-509.480715 67.453152 10472.961426 25 29 34
-1613.382339 -2303.071785 19632.949829 54 74 83
-195.808792 2157.586288 9377.582550 215 220 222
-457.851553 365.903258 10590.277863 27 30 36
-267.558837 1802.488708 9897.180176 228 233 233
-1538.086891 -2400.543785 19569.334412 62 81 92
-1203.689861 -1522.216511 17132.302856 67 88 96
-197.217011 2007.020187 9664.885712 43 46 50
-161.311448 2184.242821 9480.679321 215 219 221
-290.056396 1098.554897 9976.524353 42 45 49
-378.176475 412.268162 10369.519806 197 207 217
-409.642267 159.313655 10527.945709 33 36 40
-409.642267 159.313655 10527.945709 33 36 40
-1308.677578 -1989.200401 18270.321655 151 171 182
-316.660953 898.034763 10191.677094 234 243 250
-416.823196 489.092159 11132.933807 181 192 200
-947.763634 -1674.040985 15151.846313 90 108 119
-383.366156 -132.708538 10319.403839 201 211 224
-109.698129 2190.691566 9462.754822 42 45 52
-903.397179 -1200.902367 15453.984070 188 208 215
524.372196 -465.197992 270.316696 31 33 40
-301.282001 314.931178 10219.995117 24 28 38
-331.190133 -38.721201 10257.447052 65 67 79
-1140.425301 -2499.510956 18157.133484 175 196 206
-51.966053 1859.047890 9506.356812 239 244 248
-51.409203 1463.325787 9512.226105 34 41 45
518.956327 -477.010584 253.067112 47 50 55
3.851864 1961.134529 9323.862457 41 44 51
3.851864 1961.134529 9323.862457 41 44 51
-0.522102 1846.415710 9308.811951 39 41 47
-0.522102 1846.415710 9308.811951 39 41 47
-193.128645 47.642183 10010.150909 18 25 34
536.800289 -471.157551 -15.853694 28 30 40
-697.380495 -1649.865150 15691.868591 145 165 176
-1148.333836 -3311.528015 20602.412415 79 99 110
-13.518661 1273.529816 9698.545837 46 49 53
-637.255239 -1753.665924 15228.153992 98 117 125
-81.726277 323.792195 9652.674103 40 43 47
35.744730 1438.389683 9264.369202 32 38 43
-95.565087 102.557349 9764.250183 160 172 180
-613.221836 -1894.666100 15073.011780 154 175 183
-610.868359 -1836.340714 15381.076050 144 167 175
-610.868359 -1836.340714 15381.076050 144 167 175
120.205867 1882.204056 9070.532227 40 44 48
-436.539650 -1272.274399 13933.944702 77 94 101
77.768832 1356.287289 9240.262604 37 43 50
93.581867 1480.666351 9269.145966 29 32 39
30.372378 957.563782 9671.208191 16 21 31
30.372378 957.563782 9671.208191 16 21 31
513.301659 -453.550482 312.933493 23 27 33
-430.125380 -1378.325272 14173.931885 161 184 192
614.499760 -334.222984 -1306.904888 76 81 85
191.808021 2068.168449 8799.958801 38 41 47
191.808021 2068.168449 8799.958801 38 41 47
154.337645 1713.813019 8992.476654 236 241 245
455.602264 -209.373116 1453.695965 27 32 37
-429.869175 -1516.730499 14487.458801 90 109 117
17.393920 468.212748 9771.268463 223 234 240
-569.677114 -2390.918922 15933.546448 93 111 123
-437.507391 -1953.352928 14741.769409 88 108 119
109.327102 847.343445 9482.021332 230 238 240
-340.317798 -1855.789948 14293.188477 160 180 191
182.660854 1242.413330 9316.622925 38 41 49
148.108256 791.873646 9359.403229 37 36 47
174.408495 675.477695 9282.513428 42 44 53
174.408495 675.477695 9282.513428 42 44 53
-219.028878 -1646.156693 13847.961426 90 111 120
-121.156454 -1121.546078 12834.049988 184 202 208
300.564647 1738.892174 8782.205200 43 46 50
279.077554 1546.306610 8954.606628 150 152 159
279.077554 1546.306610 8954.606628 150 152 159
279.077554 1546.306610 8954.606628 150 152 159
-399.815106 -2872.360802 16468.351746 170 192 203
139.663208 61.423737 9506.172180 44 48 49
286.909127 1567.810822 9010.703278 30 31 41
-380.950403 -3543.804169 15673.968506 164 187 196
-301.980114 -2608.103180 15603.379822 163 183 194
-45.407322 -1211.146736 12075.331879 126 144 152
150.296533 -134.449327 9413.948059 234 241 245
228.754473 713.676071 9257.852173 237 240 246
308.164907 1526.312733 8979.857635 231 236 238
-17.294969 -3333.124924 7742.382812 103 131 179
333.973813 1584.888649 8855.615234 36 39 47
333.973813 1584.888649 8855.615234 36 39 47
-161.090374 -2070.254707 14239.295959 163 183 194
-232.871556 -2613.398552 15193.215942 107 124 135
-66.974008 -1533.515167 13129.942322 60 79 87
182.313645 -170.217216 9390.450287 33 35 43
305.595922 1180.350494 9007.587433 41 44 52
305.595922 1180.350494 9007.587433 41 44 52
297.161245 1073.608494 9100.192261 29 33 44
260.186243 644.299889 9205.426788 25 27 37
181.530774 -234.802008 9491.682434 25 30 37
-153.388667 -2258.011436 14335.127258 77 95 106
-100.512123 -1989.622879 13867.689514 96 117 128
-100.512123 -1989.622879 13867.689514 96 117 128
-106.095350 -2084.467316 14003.620911 82 102 113
393.802977 1834.547234 8671.112823 234 239 243
-219.698024 -2801.428032 15724.365234 174 196 207
-219.698024 -2801.428032 15724.365234 174 196 207
358.768177 1444.297123 8871.328735 237 242 245
-16.148935 -1549.561119 12907.051086 172 195 203
412.247944 -530.235910 2664.833641 6 8 10
306.524181 820.364666 9091.512299 32 37 39
223.387504 -83.979064 9437.931061 240 246 249
83.368796 -1099.309540 12120.119476 147 168 175
386.702609 1224.062538 8884.438324 242 247 250
109.066081 -1217.988396 12089.704132 95 114 122
-20.004992 -2446.644020 14087.365723 160 180 191
317.086959 -36.447126 8967.848206 38 41 45
123.664379 -3386.394119 6084.566116 4 11 20
331.711006 -7.016245 9172.467804 43 44 48
152.260673 -1391.885471 12376.264954 84 104 113
152.260673 -1391.885471 12376.264954 84 104 113
152.073157 -1441.209984 12370.772552 76 95 105
43.448505 -2358.638763 14001.869202 93 113 124
416.184855 873.043633 8898.159027 236 243 245
113.410401 -1835.108948 13000.250244 150 170 181
384.542918 467.680502 9103.583527 243 248 250
22.964339 -2661.096382 14417.723083 56 80 99
114.831674 -2607.920647 10782.440186 143 166 181
396.497202 471.188927 9300.500488 242 248 251
396.497202 471.188927 9300.500488 242 248 251
472.916126 1320.259857 8936.995697 227 234 237
472.916126 1320.259857 8936.995697 227 234 237
472.916126 1320.259857 8936.995697 227 234 237
183.711314 -2319.638443 9082.018280 125 143 160
35.799244 -2770.672035 15375.779724 137 159 172
517.802477 1655.798912 8505.493927 36 39 47
163.664687 -1832.151604 12666.441345 93 109 121
219.205594 -1337.065887 11927.317810 168 188 197
173.645985 -1786.917305 12601.502991 84 101 112
227.995110 -1268.307114 11988.854218 175 196 204
227.995110 -1268.307114 11988.854218 175 196 204
227.995110 -1268.307114 11988.854218 175 196 204
458.041620 839.932251 8749.895477 51 57 60
458.041620 839.932251 8749.895477 51 57 60
427.349138 458.799982 9016.016388 52 54 58
476.200676 827.690029 8873.507690 238 242 245
276.496744 -1224.819374 11747.553253 69 87 96
229.776001 -1791.729546 12607.067871 165 184 195
556.478834 1591.096115 8493.490601 33 33 43
199.831736 -2559.032822 10757.538605 139 160 175
498.231125 796.398067 8842.359161 24 26 36
463.920736 382.204056 8981.769562 24 30 36
474.888277 507.645464 9014.175415 33 37 44
599.480057 1742.024040 8549.554443 218 224 227
599.480057 1742.024040 8549.554443 218 224 227
245.425653 -2120.032883 13220.085144 167 188 196
617.238235 1927.608871 8436.055756 32 36 41
571.609831 1376.410294 8642.411804 39 42 47
556.575394 1179.649544 8727.179718 241 245 250
556.575394 1179.649544 8727.179718 241 245 250
519.206190 741.899347 8959.542847 38 43 47
522.873688 775.457811 8894.635010 242 247 249
522.873688 775.457811 8894.635010 242 247 249
218.623114 -3235.009384 5772.900391 6 19 55
484.442997 322.041035 9113.158417 30 34 38
489.058304 364.405251 9093.412018 238 244 248
489.058304 364.405251 9093.412018 238 244 248
495.365810 -351.752400 1318.583775 34 38 43
495.365810 -351.752400 1318.583775 34 38 43
348.864269 -1270.326996 11770.069122 85 105 113
271.840048 -2667.704964 6505.068207 42 66 125
271.592236 -2848.881912 5446.377563 122 145 194
271.592236 -2848.881912 5446.377563 122 145 194
367.301106 -1426.700687 11723.764801 163 184 195
351.652169 -1620.095634 12295.697021 151 169 180
600.033379 1203.085232 8867.134857 34 38 44
594.475603 1117.747593 8642.738342 235 240 242
566.840410 770.226526 8876.584625 39 42 46
566.840410 770.226526 8876.584625 39 42 46
494.127989 -119.701111 9084.347534 240 247 248
533.803558 352.371621 9002.751160 34 38 42
516.310167 134.101319 8967.996979 244 249 250
395.201921 -1300.139046 11510.230255 169 191 201
414.423943 -1087.868023 11419.735718 159 175 181
400.675392 -1265.955734 12214.797974 132 151 159
410.869598 -1162.146664 11268.324280 143 162 170
679.182386 1883.324242 8396.986389 30 30 39
648.039579 1488.666630 8519.451904 22 30 39
648.039579 1488.666630 8519.451904 22 30 39
413.252497 -1394.029427 11695.464325 79 99 110
552.160358 283.605266 9030.422974 29 32 40
346.550250 -2222.032928 4171.127701 122 145 194
516.346884 -256.910801 1689.774513 25 27 37
517.700863 -148.852730 9035.636139 29 36 42
620.128965 1016.505146 8583.480072 33 39 48
443.804455 -1192.903423 11275.391388 58 75 84
557.589626 202.133799 8914.324188 41 41 46
396.630311 -1858.999825 12310.594177 153 172 183
293.607378 -2973.302078 6265.562057 8 10 25
293.607378 -2973.302078 6265.562057 8 10 25
322.881699 -2639.211655 6433.779144 89 115 171
334.785390 -2963.391304 12847.415161 77 92 112
459.556389 -1379.346657 11411.608887 162 183 193
753.004646 2534.463120 4775.764465 161 170 174
551.587677 -456.034899 9516.298676 213 219 224
719.675446 1651.744270 8573.551178 43 47 51
658.084917 861.040783 8936.171722 40 45 48
658.084917 861.040783 8936.171722 40 45 48
689.120674 1252.138233 8707.639313 48 49 53
680.487490 1094.607258 9151.238251 226 233 236
680.487490 1094.607258 9151.238251 226 233 236
680.487490 1094.607258 9151.238251 226 233 236
385.792089 -2326.480103 7320.226288 18 44 74
487.826967 -1518.977451 11433.263397 63 82 93
595.281601 -1.368464 9041.572571 46 50 51
653.088522 629.907894 8815.013885 244 249 249
653.088522 629.907894 8815.013885 244 249 249
540.648699 -1046.418285 11407.304382 14 17 20
426.265812 -2384.104347 10800.627899 115 137 155
504.204512 -1680.679893 11724.912262 150 169 180
729.279709 1379.513741 8389.556122 242 247 248
571.204519 -1060.935783 10759.231567 130 142 148
563.230085 -1242.780876 10928.401947 167 187 198
648.241520 142.801785 8761.127472 41 43 47
665.710449 210.155463 8832.646942 32 35 41
500.896549 -2384.789276 11148.437500 57 76 99
602.869463 -1184.233284 10801.055908 59 76 89
802.439976 1696.771049 8285.383606 240 244 249
380.210185 -965.661907 -2106.652832 42 46 50
756.684160 1097.957897 8400.172424 36 39 45
396.278167 -2619.818687 5343.943787 32 62 113
355.990529 -3252.390289 5985.134125 87 114 165
801.221180 1120.369244 8527.386475 241 246 247
826.653671 1487.226295 8289.723969 234 237 241
826.653671 1487.226295 8289.723969 234 237 241
825.409794 1456.067753 8333.555603 36 39 44
784.563494 884.771538 8619.969940 234 239 241
443.234110 -577.851295 -722.980404 36 40 45
443.234110 -577.851295 -722.980404 36 40 45
770.792913 711.479044 8593.239594 247 253 251
770.792913 711.479044 8593.239594 247 253 251
588.131237 -2658.216095 12317.968750 4 2 2
689.495039 -1092.225456 10710.847473 65 79 89
689.495039 -1092.225456 10710.847473 65 79 89
448.819971 -2497.531319 5741.996002 105 133 194
852.426243 1504.075623 8270.418549 27 30 38
826.667786 1130.791187 8466.575623 48 53 59
529.792023 -421.878052 554.589605 28 31 37
803.899765 758.787918 8756.366730 47 50 57
767.096043 328.181171 8690.152740 46 48 56
667.862129 -1634.242821 11059.033966 151 171 182
865.083408 1571.951866 8298.967743 37 37 45
683.438540 -1568.074131 11156.650543 187 208 219
689.369869 -1424.506950 10874.098206 161 181 192
642.352057 -2211.884117 11378.462982 49 76 103
642.352057 -2211.884117 11378.462982 49 76 103
728.676176 -1469.639111 10959.059906 89 108 119
733.834982 -1391.122818 10877.252960 84 104 115
901.136017 1588.452816 8271.945953 223 228 228
901.136017 1588.452816 8271.945953 223 228 228
901.136017 1588.452816 8271.945953 223 228 228
736.672831 -1265.042782 10582.135773 78 97 108
736.672831 -1265.042782 10582.135773 78 97 108
851.544189 778.209686 8573.826599 226 231 234
851.544189 778.209686 8573.826599 226 231 234
851.544189 778.209686 8573.826599 226 231 234
762.604189 -1105.917549 10629.425049 61 77 87
730.838776 -1908.477020 11690.444183 162 185 193
714.644480 -2054.427147 11554.731750 35 58 78
697.887278 -2193.174934 11350.195312 21 45 74
777.680492 -1036.627293 10688.516235 13 15 19
407.823992 -517.235947 -1577.754211 117 125 126
712.475109 -2128.380966 11364.521790 84 108 131
809.880543 162.782097 8558.336639 43 47 48
870.353317 827.369785 8479.652405 28 31 40
461.432076 -2901.365662 5697.138977 32 60 124
786.163330 -1039.169693 10074.397278 143 158 164
768.368053 -2061.886024 11483.639526 144 166 179
762.721920 -2106.933594 11275.675964 34 56 76
762.721920 -2106.933594 11275.675964 34 56 76
885.256290 330.299878 8791.651917 30 34 37
848.818970 -95.875251 8733.007812 31 33 42
916.823292 826.323509 8488.191986 29 32 41
937.021637 1107.375813 8391.015625 30 33 40
966.952133 1504.045963 8304.351807 38 40 49
826.593399 -1865.064621 11348.860168 167 188 198
817.880821 -1757.841492 10642.848969 148 169 181
870.011711 -126.357090 8658.808899 236 245 247
934.717655 695.841169 8559.141541 243 248 251
855.465984 -333.092904 8707.474518 42 44 48
881.170177 34.778449 8588.864136 235 241 244
881.170177 34.778449 8588.864136 235 241 244
882.626343 72.164184 8535.538483 39 43 47
882.626343 72.164184 8535.538483 39 43 47
863.308525 -928.828812 9900.521851 79 81 81
1148.956585 3539.925766 7369.979095 159 167 167
905.224037 1774.885941 5438.130951 2 2 2
941.784954 242.338014 8644.659424 241 246 247
941.784954 242.338014 8644.659424 241 246 247
912.998962 -168.656802 8755.843353 244 249 250
912.057114 -130.314946 8658.569336 35 38 41
912.057114 -130.314946 8658.569336 35 38 41
939.061356 -1053.524876 10628.851318 21 24 24
962.625408 210.721493 8596.399689 40 45 49
956.300354 98.232317 8650.075531 28 30 40
934.144783 -266.559815 8782.997894 32 35 42
946.154785 -1546.474743 11064.418030 21 31 44
991.533661 508.916616 8533.783722 37 41 44
922.062778 -2110.658264 11375.642395 11 13 14
601.774025 -2537.751198 6021.148682 8 38 96
968.778992 -2494.766045 12235.892487 28 44 66
1098.112011 1693.806648 8144.271088 229 234 237
1025.523758 -1067.480373 10747.550964 27 28 29
1098.330212 1347.783375 8359.966278 224 228 232
1098.330212 1347.783375 8359.966278 224 228 232
1098.330212 1347.783375 8359.966278 224 228 232
932.175446 -486.354685 8176.402283 212 218 223
1007.157898 -51.980132 8751.363373 43 47 48
1007.157898 -51.980132 8751.363373 43 47 48
1108.079910 1523.779964 8177.626038 45 48 52
1108.079910 1523.779964 8177.626038 45 48 52
1038.569736 358.508372 8654.953003 41 45 46
1032.514572 -2071.197510 11721.304321 52 68 87
1319.648266 3897.432709 8060.627747 162 170 170
1085.554504 502.891159 8529.963684 35 37 44
1060.066509 133.512890 8586.325073 39 42 46
1045.626831 -212.758946 8799.851227 38 41 47
1062.177467 95.210272 8633.621216 40 42 46
1041.533184 -277.678180 8710.179901 42 43 48
436.172009 -476.927662 -138.224423 40 45 52
1079.015446 204.208136 8631.556702 30 34 38
1124.973392 983.839893 8298.426819 41 44 53
1124.973392 983.839893 8298.426819 41 44 53
1150.249767 1368.554497 8176.713562 36 40 46
1145.042324 1264.376545 8225.719452 29 35 39
1177.833939 1669.947052 8189.345551 34 37 42
1094.944859 -1490.016651 10594.964600 188 207 212
1108.622646 -1758.444786 11114.341736 191 210 216
1089.430809 21.053953 8646.501160 37 41 42
1081.711864 -142.735183 8732.655334 42 45 48
1081.711864 -142.735183 8732.655334 42 45 48
1101.993084 221.118855 8570.838165 232 237 240
1165.872288 1233.937454 8202.575684 237 243 244
699.044228 -2639.045143 6282.321548 4 25 80
1030.123138 2359.112740 4871.423721 209 218 221
1168.115044 -1020.875168 10855.719757 100 103 104
1138.889503 -1197.606087 10426.319122 84 101 107
1402.443600 3820.833588 7945.479584 8 16 28
1413.501644 3873.693085 8039.632416 8 16 28
708.523941 -2686.148071 6117.839813 38 58 116
1172.428131 658.920193 8445.652771 244 250 250
1112.108994 -192.254770 8605.200195 35 38 42
1112.108994 -192.254770 8605.200195 35 38 42
1175.547981 802.865219 8314.795685 237 244 247
1205.493164 1231.317329 8211.380768 26 32 36
1205.493164 1231.317329 8211.380768 26 32 36
1106.169987 -353.966475 8682.955933 32 36 39
1106.169987 -353.966475 8682.955933 32 36 39
1246.551609 1784.954071 8106.836700 34 36 40
1229.384804 1576.125526 8103.661346 235 242 242
1177.275658 -1272.305679 10451.408386 153 169 176
1202.411270 -1987.294006 11485.970306 45 61 77
1152.344227 -12.928796 8618.479156 41 43 51
1199.503708 779.946470 8339.181519 41 45 50
1199.503708 779.946470 8339.181519 41 45 50
1255.280590 1472.047329 8256.536865 33 35 43
1250.025368 1544.433689 8089.737701 29 30 43
1228.530693 -1725.530052 11308.311462 163 182 187
1237.431812 -2105.234337 11804.012299 17 39 60
1177.476978 -40.256354 8617.851257 244 248 250
1217.103481 -1055.196095 10152.217102 28 30 31
1583.031464 4277.548218 8939.694214 8 12 20
1283.738422 1518.393707 8130.625916 236 243 241
736.164236 -2952.988434 6140.655899 8 25 45
1271.766186 1095.185661 8242.610168 244 247 250
1224.339771 136.429965 8634.781647 45 47 48
1224.339771 136.429965 8634.781647 45 47 48
1268.245792 -1576.165485 10862.237549 208 227 232
1277.606678 935.814095 8430.212402 47 50 54
1200.419712 -136.681557 8505.282593 35 40 48
1273.851585 697.207832 8363.758087 237 246 246
1266.013050 295.621943 8572.731781 241 245 249
1266.013050 295.621943 8572.731781 241 245 249
1317.369461 1071.116829 8275.642395 48 51 57
1317.369461 1071.116829 8275.642395 48 51 57
1317.369461 1071.116829 8275.642395 48 51 57
1254.466343 -31.268576 8578.269958 40 43 47
1321.232796 701.119709 8584.568787 48 51 58
1530.328941 3765.958023 7951.361084 129 142 144
1310.621738 670.755339 8437.880707 38 43 47
1346.566391 1433.886909 8110.335541 37 40 50
1347.811508 -1545.066643 10903.768921 188 207 212
1356.750488 1528.740406 8054.761505 56 59 71
1407.813358 -1892.514038 11618.274689 137 157 168
1292.926311 -201.775837 8799.243927 40 41 45
370.653081 -578.095818 -528.203964 35 38 43
1461.088657 -1146.644974 11362.966919 35 34 34
1344.504642 801.299000 8391.097260 237 242 244
1344.504642 801.299000 8391.097260 237 242 244
1343.275928 835.210800 8339.456177 31 34 38
1361.473465 1177.831459 8206.579590 241 245 246
1361.473465 1177.831459 8206.579590 241 245 246
1422.921658 -1967.250061 11667.379761 85 105 122
1337.955666 999.310970 8115.948486 240 245 248
1325.027370 -2657.236862 11259.826660 1 7 11
1383.224106 1388.109684 8219.103241 39 40 44
1383.230686 1421.241283 8188.880920 242 246 250
1389.558697 -1278.012466 10660.267639 132 146 152
645.191908 -67.625636 1903.088951 224 231 235
645.191908 -67.625636 1903.088951 224 231 235
649.427557 -28.776512 1909.726143 31 34 38
1459.181023 -1887.077141 11635.111237 31 50 70
1385.714626 835.784054 8361.259460 236 241 244
1381.242943 791.985846 8341.596985 33 37 39
1385.146618 974.250412 8218.627167 242 247 249
1385.146618 974.250412 8218.627167 242 247 249
1426.961040 1425.888252 8227.513885 34 36 46
1425.508404 1389.527512 8240.539551 229 234 236
1425.508404 1389.527512 8240.539551 229 234 236
1343.888950 -2578.178406 10679.660034 52 54 59
1414.431095 959.799671 8286.573029 30 33 42
1414.431095 959.799671 8286.573029 30 33 42
1492.252445 -1559.873772 11121.335602 89 107 113
1407.258606 2973.741913 6544.171906 18 20 21
1345.783997 -249.384809 8573.117828 37 41 46
1444.547939 1248.187828 8203.454590 37 40 47
1410.101604 554.355526 8439.268494 33 37 42
1499.427700 -1273.374844 10758.300018 190 209 211
860.064793 -3361.421585 6474.256134 131 153 194
1481.808853 1312.504101 8262.999725 217 224 230
1459.864426 915.254688 8375.904846 237 243 245
1459.864426 915.254688 8375.904846 237 243 245
1459.864426 915.254688 8375.904846 237 243 245
859.736538 -3538.665390 6473.862457 80 95 119
1014.275169 -3278.582001 7600.394440 124 144 190
1583.613777 -1800.196075 11528.826904 62 82 100
1437.269306 312.202597 8515.061188 41 45 46
1437.269306 312.202597 8515.061188 41 45 46
1474.039078 952.824020 8317.106628 41 44 50
1506.109238 1342.672443 8179.905701 34 36 46
1568.015194 1736.714935 8184.529877 207 210 214
1461.795235 -363.179851 8762.508392 28 30 35
1666.304588 -1528.080463 11160.650635 120 136 142
1487.307358 14.600410 8453.402710 249 253 253
971.009827 -3573.091888 6829.949951 18 40 83
1557.669735 831.729031 8417.107391 236 241 245
1555.293179 975.445271 8288.257599 227 233 237
1583.991432 1370.080376 8208.061218 205 210 212
1018.474483 -3531.172180 7130.838776 81 103 135
701.938581 -26.930940 2052.446365 25 29 34
701.938581 -26.930940 2052.446365 25 29 34
1686.011887 -1187.266541 10758.856964 170 186 188
1811.579323 -1790.057945 11959.391022 148 166 173
1545.945072 -183.763385 8737.959290 238 244 247
1548.452091 -22.313505 8642.190552 246 251 253
1564.842701 226.846838 8593.882751 239 244 247
1586.998367 814.231491 8330.576324 38 42 46
1586.998367 814.231491 8330.576324 38 42 46
1600.947571 978.884029 8322.627258 34 38 44
579.510355 -369.633818 987.202644 248 253 253
1630.295181 1410.329533 8212.561798 239 241 244
1680.112076 1790.774345 8250.087738 40 45 48
1881.830597 -1830.924797 12152.243805 122 141 147
1549.827194 -67.882645 8405.027771 41 45 48
1747.805214 -1183.562660 10643.045044 204 219 221
1620.184517 740.960789 8382.280731 36 38 42
1667.095757 1447.884464 8262.151337 26 28 35
1681.670570 1466.304016 8308.222961 37 40 45
1627.117348 -2896.670341 10720.858765 157 176 184
1876.644897 -3658.039093 13008.859253 144 160 171
1803.786087 -1235.767078 10813.568878 115 132 135
1803.786087 -1235.767078 10813.568878 115 132 135
1959.687233 -1875.201797 12349.888611 199 219 224
1683.670235 1098.415852 8302.728271 244 247 250
1633.292770 -134.031260 8727.978516 239 248 251
1648.780632 99.988240 8661.645508 45 47 48
1648.780632 99.988240 8661.645508 45 47 48
1648.780632 99.988240 8661.645508 45 47 48
1699.435806 914.528275 8476.966858 43 46 50
665.103817 -371.260738 1829.754066 117 125 126
1621.229553 -116.480541 8557.489014 229 238 239
1621.229553 -116.480541 8557.489014 229 238 239
1832.492256 -1194.496155 10747.972870 192 208 210
1470.919323 2924.247169 5519.316864 137 149 155
1658.726501 -94.075334 8726.258850 241 248 250
1658.726501 -94.075334 8726.258850 241 248 250
214.134550 362.969184 -1843.574142 52 88 133
2128.195953 -2831.256485 13648.361206 37 59 74
1750.530624 1520.521355 8255.429840 223 228 233
2075.014687 -2276.689339 12820.788574 145 161 167
1684.645462 -155.116737 8748.207855 39 43 47
1765.179634 1470.664024 8293.728638 233 236 241
1694.906044 -61.673552 8749.059296 42 46 51
1694.906044 -61.673552 8749.059296 42 46 51
1694.906044 -61.673552 8749.059296 42 46 51
1726.980400 638.729239 8450.321960 47 50 55
1756.435204 1044.862747 8384.874725 25 31 36
1966.279984 -1448.539448 11326.182556 121 137 140
581.423903 -222.360396 1109.926701 58 57 57
1722.583008 -34.650648 8687.174988 238 242 245
1722.583008 -34.650648 8687.174988 238 242 245
1735.672760 11.851139 8742.757416 42 44 48
1735.672760 11.851139 8742.757416 42 44 48
1728.259659 170.588541 8596.203613 33 37 40
1728.259659 170.588541 8596.203613 33 37 40
1762.718582 388.061595 8686.746216 241 246 247
537.637138 -371.321988 870.816040 41 46 50
1756.896973 769.961548 8399.393463 232 239 245
1756.896973 769.961548 8399.393463 232 239 245
1846.392250 -2992.240143 11083.821869 31 56 87
1773.842430 5.939003 8716.911316 244 249 252
1773.842430 5.939003 8716.911316 244 249 252
1777.031708 168.807065 8636.789703 217 227 231
1756.471634 -204.307032 8719.711304 40 43 47
1762.529182 -38.821128 8662.171936 40 44 49
1762.529182 -38.821128 8662.171936 40 44 49
1319.674683 -4109.273148 8175.997925 60 63 61
752.260971 -262.992573 2118.176842 239 244 247
2315.613365 -2680.989456 13760.977173 68 81 89
1826.219559 1170.419979 8318.099976 39 39 45
1418.245792 -4396.044159 8877.733612 60 63 61
1792.132950 -272.130084 8839.508820 36 38 45
1785.734177 -391.822624 8857.921600 45 50 55
1807.496262 30.335793 8748.751831 37 41 46
2452.160454 -3310.803986 14774.537659 201 217 222
1557.974529 -5470.542145 10278.550720 12 10 10
1854.990005 856.532478 8499.263763 36 41 50
2287.317848 -2311.179924 12976.675415 138 157 162
1745.014381 -6207.733154 11623.983002 69 81 99
1924.065590 1697.319031 8193.941498 216 222 225
1888.268471 293.623781 8737.033081 46 48 49
1861.589622 877.666283 8246.792603 30 32 36
1861.589622 877.666283 8246.792603 30 32 36
1892.148781 480.541563 8637.079620 38 40 43
1910.875130 98.217088 8955.513000 204 205 215
1910.875130 98.217088 8955.513000 204 205 215
1910.875130 98.217088 8955.513000 204 205 215
1910.875130 98.217088 8955.513000 204 205 215
2458.356857 -2180.707741 13524.098206 82 98 104
2142.921448 -1256.943703 11084.093475 193 206 209
1922.605324 715.548515 8641.453552 40 43 47
1922.605324 715.548515 8641.453552 40 43 47
2710.315514 -3465.982437 15683.880615 129 145 151
2710.315514 -3465.982437 15683.880615 129 145 151
2255.443573 -1458.167076 11800.464630 191 208 211
1928.451729 1104.516411 8437.664795 43 46 50
1928.451729 1104.516411 8437.664795 43 46 50
1928.451729 1104.516411 8437.664795 43 46 50
1928.451729 1104.516411 8437.664795 43 46 50
1956.699944 1315.081215 8479.267883 46 49 56
1956.699944 1315.081215 8479.267883 46 49 56
1956.699944 1315.081215 8479.267883 46 49 56
1889.787674 502.064037 8495.056152 242 246 248
1931.593323 913.217163 8486.331940 243 247 248
2136.282158 -7041.494751 14019.721985 70 77 95
2267.049980 -1367.230415 11666.495514 124 137 141
1940.902901 470.249796 8711.587524 230 233 236
149.590647 511.012650 -1899.890518 68 97 126
1970.799255 1275.033474 8414.069366 241 245 247
1926.667213 34.481561 8806.142426 38 41 46
1954.219818 548.414898 8661.061859 38 40 47
1960.457611 944.059181 8464.846802 31 32 41
1960.457611 944.059181 8464.846802 31 32 41
1949.484444 142.940080 8816.237640 38 38 47
1949.484444 142.940080 8816.237640 38 38 47
1954.897690 439.495134 8678.050995 28 30 40
1954.897690 439.495134 8678.050995 28 30 40
2234.014893 -1268.816471 11168.756104 177 189 193
2447.688866 -1895.210457 12718.155670 133 147 151
1982.995605 169.113541 8844.161987 207 215 216
1982.995605 169.113541 8844.161987 207 215 216
1992.225266 419.603443 8756.536102 243 248 249
1983.203888 374.910569 8721.322632 44 44 45
1986.022949 575.655985 8629.615784 228 235 236
1986.022949 575.655985 8629.615784 228 235 236
1996.187019 1163.338089 8339.769745 35 38 42
2013.545036 1218.007088 8405.373383 241 246 245
2031.806564 1389.152336 8412.709808 213 220 221
2029.948997 1420.853233 8370.756531 31 36 40
2029.948997 1420.853233 8370.756531 31 36 40
2043.589401 1589.156342 8352.478027 32 35 39
2043.589401 1589.156342 8352.478027 32 35 39
2040.226364 1622.307777 8315.351868 229 232 236
2040.226364 1622.307777 8315.351868 229 232 236
2860.799980 -3034.344673 15195.079041 87 103 110
2054.586220 426.023340 8860.871887 40 43 48
2019.027901 162.041855 8795.652008 36 40 44
2033.222008 210.326028 8847.464752 234 240 245
2033.222008 210.326028 8847.464752 234 240 245
2046.648979 585.029030 8720.819855 39 43 49
2046.648979 585.029030 8720.819855 39 43 49
2060.300827 1183.132648 8458.243561 240 244 246
2459.683609 -1443.505669 11971.379089 191 208 211
2069.507599 1381.877708 8387.327576 29 33 37
2069.507599 1381.877708 8387.327576 29 33 37
2077.307892 1428.000259 8401.472473 230 235 236
2077.307892 1428.000259 8401.472473 230 235 236
2080.883217 1580.787754 8329.885864 227 232 235
2080.883217 1580.787754 8329.885864 227 232 235
587.699318 -276.247478 1068.914795 31 35 39
117.229521 529.718304 -1912.111282 85 110 137
2035.993767 335.672641 8652.294159 30 33 37
2057.054138 232.713485 8810.521698 35 38 43
2077.838898 650.001621 8712.333679 20 26 35
2090.828705 769.995546 8717.043304 26 28 38
2974.274635 -2684.879875 15216.789246 202 220 225
2096.191597 1166.711235 8517.486572 29 31 41
2918.849373 -2765.447807 14857.836914 199 215 219
2918.849373 -2765.447807 14857.836914 199 215 219
2119.859695 1571.600914 8407.921600 22 27 36
2119.859695 1571.600914 8407.921600 22 27 36
2125.718117 1472.878170 8459.730530 35 37 46
2631.445694 -1709.370995 12721.565247 129 143 148
2083.497620 313.093472 8758.447266 51 52 53
2100.934410 708.948565 8586.165619 233 237 238
2108.518600 1111.903763 8423.332977 228 235 235
2145.781326 1529.459953 8386.992645 224 230 229
2883.675003 -2283.833122 14049.624634 218 234 239
2153.940392 1064.034176 8564.729309 38 38 48
2132.013893 1096.670246 8421.786499 227 233 234
2193.241882 1340.261364 8621.923828 41 44 48
2193.241882 1340.261364 8621.923828 41 44 48
3126.772499 -2656.179810 15360.203552 59 74 81
2183.567047 1528.426838 8446.825409 227 231 235
2183.567047 1528.426838 8446.825409 227 231 235
2158.110428 1470.505428 8317.094421 38 40 49
2189.099693 -94.303024 9090.690613 41 43 47
2189.099693 -94.303024 9090.690613 41 43 47
2196.155930 655.179071 8739.774323 36 38 46
2222.415352 352.015257 9008.066559 44 43 51
2220.529175 1485.814857 8469.869995 229 232 236
79.215539 552.309322 -1925.564575 69 90 116
2208.467293 757.332850 8742.962646 35 39 42
2208.467293 757.332850 8742.962646 35 39 42
3293.823624 -2967.467117 15962.396240 201 217 222
2802.689362 -1563.990021 12798.441315 203 218 221
2802.689362 -1563.990021 12798.441315 203 218 221
72.737581 574.711943 -1951.788139 127 153 181
3153.538322 -2571.401215 14912.307739 210 227 231
3153.538322 -2571.401215 14912.307739 210 227 231
3130.627251 -2464.804840 14732.405090 101 116 122
3095.064545 -2358.596992 14500.595093 203 219 225
3095.064545 -2358.596992 14500.595093 203 219 225
2221.557045 -58.912170 9041.443634 243 246 250
3319.636917 -2793.774605 15754.490662 117 133 139
2259.595108 380.837202 9009.356689 242 248 247
731.029510 -334.781384 1629.987526 38 42 42
2251.341438 791.585159 8762.648010 238 242 243
3086.547279 -2129.583549 14226.792908 196 213 218
2917.873955 -1775.270081 13220.986938 119 133 139
2273.859787 -15.208337 9049.691772 245 250 251
2299.214363 206.502175 9071.466064 34 37 43
2299.214363 206.502175 9071.466064 34 37 43
2279.384995 155.415726 8997.803497 229 236 239
3530.743408 -3564.413452 16649.365234 205 222 229
4292.163467 -3441.746902 20131.338501 201 219 222
2356.352043 1678.054619 8587.473297 229 231 236
2356.352043 1678.054619 8587.473297 229 231 236
2364.868736 460.768795 9136.723328 38 43 47
3050.576591 -1805.374527 13303.173828 98 114 118
553.325796 -391.213012 833.025932 45 48 52
2321.548653 108.369792 8993.924713 36 40 45
1025.721455 92.941189 2738.070679 30 34 41
2377.915955 1299.547386 8713.541412 39 42 50
3464.831924 -2229.066467 15307.408142 197 216 220
2402.208328 1812.541580 8567.565918 28 30 35
2349.456215 518.713570 8858.304596 39 41 45
568.231678 -369.157672 936.277390 41 45 49
3924.012375 -3440.270615 17756.367493 103 117 124
2483.586311 -138.817084 9656.977844 45 47 48
17.757742 583.666086 -1989.961815 120 145 179
2422.994232 878.603458 8875.965118 38 39 47
2422.994232 878.603458 8875.965118 38 39 47
4087.857819 -3426.366425 18159.890747 186 197 204
4197.585297 -3633.367920 18696.374512 204 219 224
4197.585297 -3633.367920 18696.374512 204 219 224
3868.957138 -2961.580467 16786.117554 116 132 138
3868.957138 -2961.580467 16786.117554 116 132 138
2502.816391 -326.111174 9565.757751 43 42 51
-64.079946 149.986529 -2100.382614 74 112 156
3823.025894 -3127.426910 16568.705750 201 213 219
2531.735992 1772.799110 8760.798645 34 37 41
3376.579285 -1885.201645 14015.902710 195 209 215
2497.073364 9.536945 9318.621063 36 38 42
2466.743660 970.751762 8760.150909 32 31 39
3748.188019 -2653.629875 15881.878662 178 192 198
2520.125580 -293.840766 9458.250427 238 242 245
2537.358475 -245.809674 9510.457611 41 41 45
2537.358475 -245.809674 9510.457611 41 41 45
2503.185463 151.936734 9184.175110 223 229 234
681.190300 -333.575511 1349.707890 34 39 44
2540.617180 645.508623 9119.860840 30 31 35
3891.775513 -2489.809608 16232.109070 177 193 198
3894.488907 -2652.087975 16249.148560 198 214 220
3576.227570 -1900.785255 14553.645325 91 102 110
3857.040405 -2690.682411 16080.314636 83 96 102
3857.040405 -2690.682411 16080.314636 83 96 102
2598.185539 -294.036627 9585.073090 40 41 47
2537.933350 -75.682324 9229.918671 240 243 245
659.167433 -345.985627 1237.664795 37 40 42
659.167433 -345.985627 1237.664795 37 40 42
2570.022583 200.494695 9246.674347 230 236 239
2565.328598 415.942669 9136.272430 41 44 48
2588.340378 601.245403 9152.608490 30 33 40
2588.340378 601.245403 9152.608490 30 33 40
2586.417198 812.782764 9044.319153 241 245 248
2586.417198 812.782764 9044.319153 241 245 248
2589.421463 1232.523346 8853.626251 232 237 237
2589.421463 1232.523346 8853.626251 232 237 237
4381.958771 -3464.098740 18310.459900 211 225 230
2586.751556 1435.347939 8749.011230 30 32 36
2586.751556 1435.347939 8749.011230 30 32 36
2589.668846 1477.453423 8735.420227 233 236 240
2589.668846 1477.453423 8735.420227 233 236 240
2596.193504 1642.779541 8687.094879 230 234 235
2596.193504 1642.779541 8687.094879 230 234 235
3925.697708 -2313.971710 15826.562500 181 197 203
4400.057220 -3229.055405 18172.163391 72 90 96
3849.740219 -2134.349251 15387.609863 80 94 101
3849.740219 -2134.349251 15387.609863 80 94 101
3849.740219 -2134.349251 15387.609863 80 94 101
3849.740219 -2134.349251 15387.609863 80 94 101
2633.186531 785.329294 9105.862427 39 43 46
2619.483376 1092.977047 8901.462555 40 40 49
567.900801 -368.728137 879.590321 31 36 39
567.900801 -368.728137 879.590321 31 36 39
4078.903198 -2730.932426 16489.476013 181 197 201
3986.799240 -2341.516304 15875.994873 77 88 96
3986.799240 -2341.516304 15875.994873 77 88 96
536.773252 -399.038815 770.127726 34 36 43
2663.999176 1537.555599 8829.252625 32 33 40
4020.996094 -2728.730392 16094.454956 93 107 113
4020.996094 -2728.730392 16094.454956 93 107 113
2684.168816 294.694209 9368.406677 39 40 44
4137.917328 -2698.936653 16510.826111 214 230 235
2656.546974 -200.330925 9425.865936 238 243 242
3901.609039 -1797.980118 15104.037476 180 196 202
3754.425812 -2006.328011 14571.069336 187 204 209
2649.588013 1132.592678 8829.990387 40 38 44
4211.372375 -3257.049561 16755.343628 211 227 233
3928.108597 -1955.141449 15053.137207 172 186 192
3928.108597 -1955.141449 15053.137207 172 186 192
2717.551422 1553.542423 8811.021423 241 243 244
4335.609436 -2722.881126 16902.545166 170 189 194
2781.059456 1850.079536 8931.112671 34 35 39
4274.636078 -2516.559410 16497.822571 207 223 228
2741.971970 754.434013 9137.355804 43 46 51
2765.315247 349.255157 9328.854370 50 48 59
3968.430328 -1718.218803 14845.535278 67 76 83
2838.849449 -486.479759 9913.362122 53 55 56
2838.849449 -486.479759 9913.362122 53 55 56
4568.621445 -3414.773178 17849.470520 205 224 229
4538.252640 -2888.989067 17414.633179 194 210 216
-85.356444 495.338821 -1997.765732 105 132 166
728.129482 -387.324309 1383.819771 51 54 58
2817.853546 423.429298 9380.364227 40 41 45
4106.497574 -2023.806763 15317.007446 156 173 180
573.047209 -405.679655 732.632017 53 55 56
573.047209 -405.679655 732.632017 53 55 56
2843.721199 1487.160492 9013.811493 35 38 40
-94.087172 499.278927 -1992.886162 46 70 102
3993.579102 -1658.452034 14547.076416 190 201 205
4804.548264 -3126.095581 18185.697937 189 203 209
4804.548264 -3126.095581 18185.697937 189 203 209
4407.795334 -2622.585106 16404.847717 104 119 125
4961.674500 -3275.732803 18736.645508 77 91 98
4596.257401 -2586.528969 16970.307922 199 214 221
2934.898949 307.836795 9500.120544 220 223 227
1740.926743 1704.197693 4545.548630 25 25 28
475.155258 -403.938580 406.992483 23 41 70
4333.851242 -1730.746269 15374.069214 171 186 188
5269.460678 -3919.593811 19574.147034 147 164 167
4598.376083 -2121.247101 16319.424438 201 216 222
-157.418191 182.539451 -1972.848892 102 116 119
4795.803452 -2195.025063 16777.471924 95 109 115
4795.803452 -2195.025063 16777.471924 95 109 115
5508.423615 -3337.415314 19716.072083 202 218 224
4761.057663 -1968.604660 16419.487000 96 107 115
5025.869370 -2568.317032 17560.362244 102 117 126
5025.869370 -2568.317032 17560.362244 102 117 126
5669.182205 -3648.809052 20221.006775 106 119 127
5669.182205 -3648.809052 20221.006775 106 119 127
2669.398499 2087.663078 7492.731476 71 68 67
5267.305756 -2355.534363 18211.663818 189 206 211
5655.955887 -3378.205490 19891.362000 98 113 120
1795.630836 1573.898602 4556.555176 81 91 164
-164.836311 833.399582 -2137.916946 126 138 156
5253.935242 -2676.296234 18178.343201 203 219 226
5317.003632 -2523.643303 18328.448486 196 211 217
5317.003632 -2523.643303 18328.448486 196 211 217
5905.233765 -3359.930801 20604.000854 203 221 226
5905.233765 -3359.930801 20604.000854 203 221 226
5031.365585 -1936.363029 17040.974426 64 79 88
1823.957634 1737.701416 4562.929535 2 5 8
5065.368652 -2022.494125 17144.198608 194 206 215
5115.940857 -2112.360573 17330.187988 74 85 94
5689.205933 -3361.310577 19677.534485 195 210 217
5511.576462 -2878.463745 18867.982483 208 221 229
5298.535919 -1913.796997 17794.070435 57 76 87
5298.535919 -1913.796997 17794.070435 57 76 87
5860.569000 -3625.314331 20310.255432 195 212 219
5546.265030 -2598.070908 18859.394836 98 112 118
5531.568146 -3063.430595 18949.659729 189 205 212
5246.772003 -2375.157928 17730.818176 185 198 206
5246.772003 -2375.157928 17730.818176 185 198 206
5246.772003 -2375.157928 17730.818176 185 198 206
3210.078430 623.725080 9574.687195 145 151 156
3210.078430 623.725080 9574.687195 145 151 156
3208.337784 475.096989 9603.604889 147 151 156
3208.337784 475.096989 9603.604889 147 151 156
3241.753387 951.663113 9556.414032 182 185 190
2059.911537 1600.070763 5303.226852 51 69 99
1245.151901 16.502962 2905.330086 144 147 152
3266.812897 1758.520126 9316.454315 163 166 171
3311.373520 1895.477867 9415.222931 147 150 155
6277.780151 -3380.170822 21003.474426 193 209 215
6032.765961 -2949.538803 20024.424744 102 117 125
5847.815704 -2786.053085 19342.573547 181 197 204
5847.815704 -2786.053085 19342.573547 181 197 204
5869.390106 -2056.759453 19164.607239 116 132 146
6131.555939 -3098.060799 20381.571960 184 198 205
5927.648544 -2147.301674 19304.507446 50 67 79
3421.393967 -993.352318 10493.836975 28 28 28
-206.568956 859.664631 -2116.100311 36 41 57
5991.810989 -2593.673515 19453.852844 70 86 98
5991.810989 -2593.673515 19453.852844 70 86 98
-180.873919 166.668785 -1778.417778 159 169 179
6449.580383 -2876.910591 20831.344604 83 100 109
2115.361214 1556.505394 5260.706329 210 225 232
-202.269149 155.711567 -1829.551315 70 78 93
-198.912108 85.383695 -1795.584679 124 137 160
6453.174591 -2760.121536 20606.541443 76 92 104
2668.673325 1950.741577 6897.714996 63 62 60
-201.549435 472.970295 -1909.594536 178 183 184
-204.055452 291.746283 -1857.890511 123 134 148
-204.055452 291.746283 -1857.890511 123 134 148
2031.102371 1715.760040 4899.462509 3 3 7
3431.497574 1951.327896 9310.151672 205 210 209
-237.743044 119.895363 -1867.894745 75 88 110
6978.499603 -1938.256073 21497.882080 60 76 89
-229.765368 132.466888 -1830.699539 124 141 162
1731.133080 1622.200394 3887.051773 155 165 215
2493.159676 1747.058296 6175.334549 204 220 225
2493.159676 1747.058296 6175.334549 204 220 225
2035.157394 1626.202583 4733.278275 1 3 5
2202.822495 1667.394447 5187.784958 121 134 193
1918.107986 1616.491699 4309.933853 56 53 50
4024.797440 2086.452866 10490.238190 47 52 53
4024.797440 2086.452866 10490.238190 47 52 53
2517.444611 1715.577126 6062.731171 216 232 235
2195.655632 1545.385647 5118.686676 212 230 238
-299.938583 193.006492 -1908.962059 97 116 141
-262.336063 586.882734 -1903.865814 204 209 212
4300.029755 2285.005760 10789.005280 186 204 205
-305.126357 185.953498 -1859.946442 53 62 78
4504.127502 2276.968002 11298.796082 175 189 191
-339.083219 212.173080 -1892.869568 118 129 147
2284.882355 1569.586945 5064.594650 68 85 127
2682.030487 1663.294792 6118.011093 142 160 171
-351.341963 -92.891663 -1823.451042 34 51 65
4590.800858 2264.023399 11165.794373 202 217 219
-355.728340 -177.008080 -1799.904442 69 110 159
-369.483566 -163.066196 -1839.147377 17 47 86
4635.084534 2213.137436 11274.743652 219 234 237
4635.084534 2213.137436 11274.743652 219 234 237
4253.456116 1912.488747 10298.404694 213 230 233
2751.604462 1756.331062 6210.736847 201 218 226
-374.098182 -51.701736 -1865.316391 52 65 77
3283.792877 1923.120880 7581.179810 214 229 232
-371.996593 -5.313087 -1863.219070 64 81 91
-362.799144 -73.572797 -1816.175652 40 57 71
-363.309121 -72.458452 -1817.725372 40 57 71
2351.667976 1605.150223 5112.582397 88 96 134
2777.112198 1712.129402 6225.923538 196 217 224
2777.112198 1712.129402 6225.923538 196 217 224
-380.414867 -229.550147 -1812.689972 68 96 125
-381.242108 -167.735040 -1831.846619 15 38 69
-375.459361 -84.148836 -1835.880661 118 146 173
-375.625277 -105.269039 -1828.566933 28 49 65
3760.335541 2065.213585 8736.103058 211 228 231
-376.419067 180.894363 -1897.287369 149 157 171
-363.253117 117.938578 -1841.841125 137 145 160
-379.288077 -29.037347 -1843.694115 87 125 173
-347.945952 293.018961 -1840.095520 158 164 171
-352.851319 90.509814 -1794.224930 143 156 172
4022.351074 2109.851265 9364.388275 224 240 243
-386.677122 -69.962281 -1836.465073 110 141 173
4426.118088 2143.263817 10417.790222 151 163 169
4426.118088 2143.263817 10417.790222 151 163 169
4426.118088 2143.263817 10417.790222 151 163 169
-374.045730 110.931754 -1848.988724 80 89 103
2219.732857 1755.156136 4637.979126 82 101 160
-394.566202 -106.554341 -1840.996742 58 95 129
-394.566202 -106.554341 -1840.996742 58 95 129
-373.525119 135.907710 -1846.716118 173 182 196
-392.084193 -89.213055 -1830.714035 40 62 92
-415.848970 -122.413194 -1874.700546 37 53 70
-360.220075 500.101852 -1891.026306 81 83 84
-402.612638 -287.547016 -1792.101097 71 108 156
3633.144760 1982.259750 8257.267761 215 231 236
4691.052246 2240.924263 10973.681641 201 218 221
4691.052246 2240.924263 10973.681641 201 218 221
2845.108223 1819.612122 6222.618103 203 221 227
6133.465195 2429.903412 14700.488281 120 134 140
-401.494932 -33.363730 -1848.641586 112 144 190
2433.961105 1619.858932 5170.454407 159 178 184
-419.694614 -224.160862 -1833.858109 101 136 154
-406.702185 -78.667462 -1838.371277 74 107 153
-406.702185 -78.667462 -1838.371277 74 107 153
-413.167620 -91.008228 -1848.655510 55 92 135
4684.080505 2258.017159 10850.344849 173 187 193
-385.854077 176.706982 -1847.856522 177 186 199
-432.152700 -365.757465 -1817.894173 114 130 157
2921.874428 1860.254097 6335.062790 86 104 115
-425.530863 -388.124514 -1789.949608 111 125 151
2807.720375 1808.738899 6042.222977 197 216 221
3566.527176 1991.540146 7947.756195 205 219 225
-373.510504 486.162853 -1877.674866 100 102 103
-414.399242 -83.421814 -1832.580185 34 56 97
2330.127716 1708.889389 4812.910080 84 101 158
-353.245640 332.678843 -1777.392387 73 76 81
5607.432938 2472.016716 13040.838623 215 230 232
-448.654747 -381.794977 -1828.137207 72 86 114
6258.203506 2604.480934 14649.838257 219 234 236
6258.203506 2604.480934 14649.838257 219 234 236
4490.261841 2267.450905 10185.321045 144 160 165
-381.727457 495.150089 -1881.500053 200 205 206
-420.252180 -164.824057 -1806.377411 84 124 138
2642.291832 1742.079735 5572.977448 221 237 242
2642.291832 1742.079735 5572.977448 221 237 242
4819.183731 2321.881676 10984.953308 150 164 170
-426.512861 -47.583556 -1840.854645 31 32 35
-404.917765 188.280821 -1845.703506 162 170 184
3937.555313 2126.620293 8729.801941 148 164 170
2953.086662 1687.453842 6316.724396 117 129 135
2507.128716 1702.320862 5184.555054 58 68 103
-390.405273 530.448294 -1880.997086 64 73 73
-457.880974 -289.102435 -1839.295769 118 144 172
4981.236649 2398.565483 11264.782715 209 225 228
